ply
format ascii 1.0
element vertex 695
property double x
property double y
property double z
property uchar red
property uchar green
property uchar blue
end_header
-0.2190144574825555 0.1568715674383349 0.9811740358021673 147 60 66
-0.2201518974477844 -0.2338551236440889 1.2484848398922810 101 68 49
-0.2282348270444325 0.1437018924959358 0.9953409520341138 206 163 59
-0.2396908019930406 0.1273274883323555 0.9799334026788966 242 73 104
-0.1464293014114047 0.1880603060308703 1.1348952209118877 75 35 35
-0.3890878795387359 -0.2333173147899542 1.1514575359733721 188 143 138
-0.2455365298380767 0.0665877081214952 0.9148196961054941 231 248 232
-0.1118040106312356 -0.0151896227840574 1.3395119852459545 116 68 45
-0.2258177204816854 0.1423925122978925 1.0817818817670650 96 95 103
-0.1068850072326448 0.0184453634757741 1.3447179034312631 51 16 14
-0.2315030429658013 0.1012956266125545 1.1311717025227888 138 124 137
-0.1245664042745922 0.1379195245556984 1.2285046113840719 158 148 112
-0.1734226368316998 0.1230699847366070 1.1986237577669845 165 119 69
-0.2433712166201847 0.0927749534005474 1.0219221933099534 250 66 104
-0.2684025097675511 0.0055802017984438 1.1010126565776357 226 29 57
-0.2576956958831359 0.0459721580724504 1.0692949433758228 255 252 171
-0.2686197723324769 0.0057849364004567 1.1011530748675340 226 29 57
-0.1620226839966348 0.1486199286843919 1.1790630922440233 186 179 137
-0.1558170465903960 0.1051548768671278 1.2374540542394250 154 102 80
-0.1703340709854539 0.0989043288901676 1.2280215919674040 126 118 97
-0.2523280970795594 0.0701331934680996 1.0369210321452627 255 116 149
-0.1717089897848477 0.0837630013502152 1.2442844889124063 64 45 41
-0.1103003307041267 0.0931628473398976 1.2834252484314568 62 23 26
-0.2442898434491118 0.0456888512814753 1.0195686177587662 203 49 59
-0.0732821645422673 0.0896487129181936 1.3110800310419679 117 78 21
-0.0358372070009603 0.0066583807198000 1.3815127412125150 119 80 23
-0.0528979667265691 0.0523405285207468 1.3544303779525535 148 99 56
-0.2978162086228565 -0.2507667382636323 1.2014724507046761 87 62 32
-0.3810533317580297 -0.2572561437556365 1.1552210952929862 42 23 16
-0.2144182036756120 0.1881626041410770 0.9011482704316812 244 253 234
-0.2537377105786460 -0.0326233312426079 0.9995421526161320 249 243 45
-0.0030289617423800 0.1498282277943249 1.2892321006480152 128 54 17
-0.2085236748732476 0.1804890694364214 0.9823352132640013 235 38 66
-0.2131994584306477 0.1803659707022277 0.9678347045670725 211 172 97
-0.2296593415805221 0.1293465237221126 1.0968624649172802 115 102 96
0.0130319188886081 -0.2552027178596897 1.3853414229033691 30 16 15
-0.2173261599845372 0.1643694004234548 0.9627635217619742 214 54 78
-0.3065571622614101 -0.1670734226468814 1.2194384090707142 96 73 65
-0.1123168589667619 0.0892657009920694 1.2855752094951522 68 33 31
-0.0702940787649827 0.1971741420854858 1.1627103144211475 47 37 45
-0.2389611687412850 0.1331358142363494 0.9884233818067338 242 48 82
-0.1823103198956040 0.2147397213874372 1.0427642904847532 226 242 216
-0.2069544215303782 0.0298689348855414 1.2591518608870655 95 47 33
0.0328716852876514 0.0680477718624208 1.3393446879400470 91 24 18
-0.2475701361641382 0.0795331145586765 1.0293062117840601 253 82 116
-0.2466189024908227 -0.0443703770478343 0.9798120677510719 237 37 63
0.0855113150196982 -0.2704360440409159 1.3815499682771524 25 21 22
-0.2263879559849470 0.0277962644494526 1.0159806846437671 243 237 31
-0.1877894486331505 0.0556902645378872 1.2515878593134986 115 44 40
-0.2560938934259439 0.0314482463003582 1.0664923669061217 255 107 139
-0.2905804544876224 -0.0490760465341336 1.0251645834484537 217 219 110
-0.1802910598061784 -0.1507637546948677 1.3086056298516100 128 101 54
-0.1921624826959803 0.0883067806826273 1.2206105023299214 102 56 56
-0.3283707931423205 -0.0865966040907042 1.0258432741776631 246 240 6
-0.2263136393606534 0.1134870067285718 1.1200681558107857 88 55 48
-0.2400904984011609 0.0609018467651814 0.9289687304950701 225 242 224
-0.0440539204770841 0.0503919127989090 1.3671152736738972 137 73 35
-0.2400904984011609 0.0609018467651814 0.9289687304950701 225 242 224
-0.1972326483550543 -0.0055317156165817 1.2762658107019507 69 35 26
-0.3105583911248895 -0.0500334394765297 1.0436917879097143 241 231 9
-0.2451288603026540 0.0701573432683970 0.9740126888205476 217 43 66
-0.0184253450266288 0.1343080236010233 1.2547974834980831 163 81 43
-0.3583243033283896 -0.2666715704594324 1.1648535665834285 45 21 17
-0.0079655716357239 -0.0527655458920900 1.4289501646468084 20 18 23
-0.2738425085357047 0.0195065128075633 1.0918730882809720 184 91 99
-0.1884733569423460 0.2805176169242274 0.8526380556778360 197 158 125
-0.2149603185349477 0.1542169090888443 1.0924899858606909 165 144 115
-0.2028794396594022 0.2624160553519191 0.8388910326571225 202 78 86
-0.1899667792024851 0.2757966219385128 0.8488739835356834 197 57 58
-0.2427765858312549 0.0743627764593856 1.1490234265891883 93 53 54
-0.2449396061675294 0.1215205231441098 0.9919393006168580 120 31 0
-0.1995111057965970 0.2446447483253685 0.8006138905299339 180 106 121
-0.0769518682727613 0.0852321378702693 1.3114459859296774 151 119 78
0.0139147258753090 0.0890613634189461 1.3547961131495130 134 76 62
-0.1901578720158238 0.2649507503554319 0.9298130284593321 142 32 33
-0.0680510231678961 0.0128744242169821 1.0074630991089395 185 125 124
-0.2425237064311204 -0.0095834038216634 1.2118069379180190 250 216 214
-0.2625362265694742 0.0278656884172999 1.0926136112194103 110 38 0
-0.1902920073261267 0.0706464437044435 1.2439899100002381 162 110 86
-0.2454139257094596 -0.0127188783941259 1.2174706225666323 255 243 228
-0.1907728227816605 0.2340363705228627 0.7859902642405847 146 116 124
-0.2160042851617746 0.1437208271327983 1.1065446848557026 175 96 55
-0.2351184522409797 -0.0132690730989971 0.9983689811417453 202 66 68
-0.2161274953030460 0.1407761467693702 1.1045611904332164 134 125 96
-0.2089163499654623 0.1432875903897874 1.1303710761555104 211 190 135
-0.2059574027674237 0.1410781497224110 1.1274557956792945 229 200 124
-0.2496064959878869 -0.0199726712675372 1.2296173197245979 211 196 203
-0.2259694126232523 0.2157371595392020 0.9397808096511469 194 52 64
-0.2165041128650357 0.2289517094152884 0.9461018735342642 192 33 53
-0.1753407942302555 0.0893343335201703 1.2358168787133950 60 42 30
-0.2437069123710234 -0.0205215277826177 1.2395868789015934 220 185 181
-0.1996265819221481 0.2376570945773921 0.9757236906251099 165 111 135
-0.1608820163045027 0.2605284837219880 0.9784315969867502 137 124 90
-0.1656475515394248 0.2440849950559252 1.0258236791999293 123 18 15
-0.2322643772463091 -0.0165214191476536 1.2609352826629274 145 105 80
-0.1657824310403350 0.2441043386197542 1.0259500780426003 101 37 25
-0.2588803395890913 -0.0318170183625389 1.2043359550235622 206 215 210
-0.1639713179117600 0.2480559518673505 1.0131430498671476 169 158 128
-0.2527527688529758 -0.0252917158388902 1.2299122722955649 195 165 155
-0.2112587846898256 0.2284478471065858 0.9424030254411327 194 55 60
-0.1589520741546367 0.2456426709732454 1.0252666678735225 147 143 95
-0.2637898207474755 -0.0388329948275341 1.2061818933513357 94 82 82
-0.1273980241085483 0.1550332501585627 1.2045008360965912 177 149 102
-0.2660781673159959 0.0091790732054096 1.1036308460654454 159 25 26
-0.2176974428618424 0.2202001104742875 0.9520081496821274 172 47 53
-0.1807805969896446 0.1387757915401274 1.1687283283640137 221 219 198
-0.2137518137757338 0.1843176817541577 0.8747678288962142 204 155 125
-0.1807811547041067 0.1386932034302596 1.1688176989221484 221 219 198
-0.2713201043611311 0.0134981768207093 1.1242689400707302 200 37 56
-0.2252984168323970 0.2028163878003846 0.9511185899345709 129 31 2
-0.1734153933469737 0.2305001129873098 1.0471838007381089 176 170 138
-0.2806761612175562 -0.0677819224732068 1.1675156390211563 186 42 52
-0.1869244036103307 0.1372192721687527 1.1680051514370737 186 152 115
-0.2372799024398901 0.1887270924363275 0.9341400638186160 201 44 65
-0.2633034502840234 -0.0702045348397216 1.1821700059205782 121 59 82
-0.2142988754517153 0.1252880873959114 1.1340750447613939 240 226 179
-0.0859230208980309 0.0506001257628275 1.3372073385286727 91 32 24
-0.2681495168890188 -0.0525578946544605 1.2312750130222299 95 55 53
-0.2076935815259002 0.2083265230338331 0.9821386747968341 179 88 93
-0.2729280502658366 -0.0076196816817064 1.0867470256119225 204 75 70
-0.2725844045254820 -0.0544379183274895 1.2235630723916018 191 201 202
-0.1693941802974124 0.2407368021905922 1.0304611551848120 129 14 7
-0.2251897382793152 0.1655532655391983 0.8531615175040227 218 182 148
-0.2173538392483407 0.1961094706483978 0.9617742868347512 157 84 77
-0.1891779342637800 0.1314200201102808 1.1671288319231463 204 153 122
-0.2361495087360531 0.1606914512712660 0.8420533283624446 122 14 27
-0.2721130830196541 -0.0590522168013492 1.2226752708868156 188 191 182
-0.1714889202134478 0.1351288497267633 1.1900434192584612 167 120 90
-0.2401542339184403 0.0489598321998451 0.9234682643496857 122 21 35
-0.2290267623763504 0.1865052722719159 0.9437407473055667 126 46 13
-0.2801436174748828 0.1365998746764723 0.7800866615349018 119 141 164
-0.2330879229537222 0.1805463130017410 0.9383337372926821 142 44 15
-0.2660074309912430 -0.0585960055715571 1.2392250280692749 145 89 56
-0.2073073810341689 0.0763261417137941 0.7726044932845301 168 75 96
-0.2298199485595178 0.1076464588880746 1.1248564340092990 98 81 99
-0.2701807766107737 -0.0613419865120880 1.2417292209893072 129 53 37
-0.2326910475258535 0.1555361456767865 0.8491551598425718 198 179 139
-0.2690962593324452 -0.0156579074106235 1.1148580082567872 223 86 94
-0.2561447300603252 0.0245230368488619 1.0591661498199523 163 70 62
-0.1951941538353471 0.1200012098536067 1.1821648218037837 137 98 69
-0.2119613064129388 0.1773445202745870 0.9744554391392994 97 14 0
-0.1622605882792350 0.2210701747648734 1.0723622987492265 162 147 116
-0.2913256271872508 -0.0797425359715887 1.2041434605255330 185 198 217
-0.1305438375108895 0.2165236159432487 1.0944323638856837 136 126 91
-0.2418293438234037 -0.0736096762320882 1.2687518922821124 98 42 19
-0.1878232291041894 0.1170623375605444 1.1880687289850802 183 189 151
-0.2325292059910393 0.0990239049791951 1.1322815505017918 185 173 187
0.0609184790204767 0.2503425209891609 1.1096648085762468 65 57 46
-0.2544963442460767 0.0205647320500933 1.0536586997186361 198 93 87
-0.2158701027245853 0.2016935054277009 0.9581938629596540 231 183 109
-0.2158701027245853 0.2016935054277009 0.9581938629596540 231 183 109
-0.1548948903860178 0.0565158144078146 1.0264524297110351 218 127 122
-0.2514982991644042 0.1242005354890842 0.8393941172966106 229 255 255
-0.2825300986247707 -0.0622978479683210 0.9991181634515858 255 242 97
-0.2210875335152653 0.2002743260299764 0.9602256083388603 112 22 0
-0.2214124931073622 0.1607544884947413 0.9570295768187559 169 58 41
-0.2304559249091008 0.0086149974022863 1.2345393742122095 251 244 215
-0.2210875335152653 0.2002743260299764 0.9602256083388603 112 22 0
-0.3809451368590822 -0.1194122953517595 1.0767519313910248 218 17 36
-0.2847912958839309 0.1403674690079739 0.7740613851318826 218 245 254
-0.2574854244761993 0.1244959304678494 0.8470088176470066 236 255 255
-0.2200772640089843 0.0970462986006095 1.1631794210291684 177 135 110
-0.1778691500458167 0.2283180320846840 1.0480527231528263 109 0 4
-0.2510270590340027 0.0506382155120913 1.0321750786208805 164 58 45
-0.0638211922322577 0.2191902930984844 1.1315918794982760 114 44 36
-0.2636537792637524 0.0210446244963260 1.0972353040314022 185 90 84
-0.2211880846181168 0.0920189233274277 1.1676945922071236 151 92 88
-0.0638731351602291 0.2193043119522700 1.1316111820763686 127 65 44
-0.2411375090790935 -0.0067272078163177 1.2324619450646928 250 241 224
-0.1900364113530559 0.1020752523612052 1.2041952935585520 112 102 77
-0.2341910299837841 0.1332472257280206 0.8439837992712103 167 82 79
-0.2547655631002805 0.0098024247953759 1.0696644833565834 214 76 101
-0.2319909362170507 0.1849709412665621 0.9416414717841789 79 18 0
-0.1736837637657437 0.1775314825863458 0.9820499843206604 212 65 73
-0.2479496005602723 0.1302449383729018 0.8841562809556083 158 25 52
-0.2434507675972112 -0.0104056868052404 1.2319079861840929 197 137 113
-0.2597825080205646 0.1288097840970391 0.8371263670563791 225 255 255
-0.2010625143106497 0.1094660344405630 1.2130746732374218 82 63 30
-0.2289346338772367 0.1821364953509577 0.9447775103014416 158 23 29
-0.2397367447271870 -0.0113560153626556 1.2477636350838313 230 210 159
-0.2600168764094749 0.0171044513447088 1.0925504132354920 176 70 70
-0.0930571174749933 0.2032938288539992 1.1176145483959161 111 33 20
-0.2576468482689419 0.0716280556623164 1.1065759645588666 131 58 88
-0.2597717576068286 0.0141037355907173 1.0931184809105932 255 253 31
-0.2546002601120831 0.1147730468034756 0.8593045285203252 186 218 233
-0.1842237633493044 0.0986085513068793 1.2160702008291491 123 121 98
-0.2532682569218259 0.0060811608992300 1.0735891230821031 195 98 105
-0.2534606975630174 0.1146136310954994 0.8587217145009887 186 218 233
-0.2295435095844173 0.1317210116595831 0.8653886639813396 231 222 193
-0.2598701622669490 0.0154330272000138 1.0990848094240491 142 48 36
-0.0736824551399257 0.1102983936113442 1.2899638837777123 107 33 22
-0.2361297378668270 0.1271030154613842 0.8529764850339107 165 146 103
-0.2224943225717192 0.1542385811674714 0.9892853499522175 132 40 25
-0.2234301362590130 0.1448493799724405 0.9662914480018000 174 67 57
-0.2941531267434650 -0.1204908894131113 1.2590809245582291 117 99 85
-0.1827147086754264 0.2126981139123055 1.0694687870188151 134 81 50
-0.2208924932881982 0.1539846325747183 0.9591737470595482 130 33 0
-0.1688861996879874 0.1172011623269891 0.8227367716222129 194 182 140
-0.0870467719347592 0.2065877201910580 1.1141422638405167 152 85 66
-0.2569885932411006 0.1182479465204914 0.8551850244837301 184 200 200
0.1050261254537910 0.2332379908921284 1.2324895080972347 138 112 97
-0.2247027259205989 0.1476177241174777 0.9545166719789847 157 31 45
-0.1817133315045340 0.0880770241289591 1.2307275489745122 135 127 116
-0.2192638872915675 0.1556311333954272 0.9793971864585761 79 20 0
-0.2301309002731194 0.1424966540841456 0.9943282670743741 134 65 26
-0.2469015930685711 0.0658315974940624 1.1463676609015856 173 182 197
-0.1004767686053066 0.2067460099345123 1.1199055680233849 155 92 51
-0.3481108616589298 -0.1594519481372241 1.1790362791115312 223 231 190
-0.2245417163391779 0.1460532455296668 0.9528750770639804 192 61 79
-0.2650348424301497 -0.0051547711761430 1.0629696875907784 223 22 56
-0.2314027359240757 0.1420848651947378 0.9969269095879102 234 196 111
-0.3481084646828041 -0.1646642703767986 1.1747295638844544 76 22 10
-0.2263496827114315 0.1453103526297191 0.9619230149615813 149 36 42
-0.1889546409634552 0.0841303111174151 1.2265555079687052 121 39 43
-0.2678528043347891 -0.0452759352344005 1.2160398370439376 75 32 39
-0.0573219912776543 0.2002054092082391 1.1801900294497756 46 14 17
-0.2603499401166221 0.0543456248634208 1.1174754008261800 138 105 136
-0.2391864420866386 0.1386994960850725 1.0037856469550079 140 71 40
-0.2719764463842979 -0.0532309539811783 1.2004334084118797 203 226 234
-0.2684059063609930 -0.0484919909930239 1.2209595652421170 97 89 100
-0.2295665330457139 0.0717835154391036 1.1833367398332959 246 218 194
-0.2690325025123412 0.0068098782563683 1.1037234569517811 182 34 48
-0.2713136541531935 -0.0505887102552423 1.2150693385817526 186 189 180
-0.0548742742351621 0.1997070314402490 1.1827300558803953 148 90 68
-0.0804909251771881 0.0948335704479545 1.3009083095952998 184 169 114
-0.2735826024705893 -0.0421033803164998 1.2284139770117013 152 98 72
-0.2662573625876575 -0.0478319703530370 1.2296144305370296 168 142 117
-0.2009705278324072 0.1760170134557879 1.0900420703675766 170 132 96
-0.2536586547966924 0.0124933685297767 1.1402368615440666 150 149 165
-0.1853921723310727 0.1723244174526952 1.1209994145675219 76 56 65
-0.1665628917163434 0.0828495625382247 1.2512303999408261 60 44 44
-0.2673344796446100 -0.0457075079757537 1.2045881662715880 171 176 170
-0.2430410192869538 0.1279347995434043 1.0181876049609544 181 22 42
0.0469525292118564 0.0904168595212750 1.3507024429454184 132 75 56
-0.2316063453252101 0.1478524557350029 1.0262104541738519 199 44 60
-0.2454343800781266 0.1195940423862530 0.9922695585382374 255 246 60
-0.2224664878817719 0.0318492677794604 1.2212384102391283 221 172 131
-0.1776102282030788 -0.0569890802852199 1.3127590193000398 147 113 88
-0.1825873500510385 0.1772859173115785 1.1239803972804527 60 9 6
-0.2488945896698166 0.0880381386262784 0.8995671299406510 96 23 40
-0.2559965547797119 0.1241145400238244 0.8490721444490790 117 110 82
-0.2454877050441887 0.1160739110978913 0.9915808118207455 255 248 54
-0.1338663460556855 0.0810467426882402 1.2801552324959453 117 27 26
0.1168210805070674 0.2486552199585838 1.1898318369391512 130 108 87
-0.2347920503367599 0.0834206686087733 1.0039976672821251 141 43 42
-0.2829157328546900 -0.0690146063876815 1.2205195179311588 168 50 64
-0.2395189579210865 0.1269795197151413 0.9731635240842240 162 58 49
-0.1887731768436140 0.1711404820226745 1.1165396460585308 99 48 47
-0.2524568194570174 -0.0043343085955399 1.1253419091151153 186 31 35
-0.1894798731470007 0.1712603628325673 1.1165461440753794 99 48 47
-0.1899464506874764 0.1681835581116621 1.1181413210723299 93 49 72
-0.2068019717198849 0.0335952668980769 1.2584973944305800 157 129 81
-0.1623981286074748 0.0636115355714319 1.2636024100890717 165 112 81
-0.2873949932981804 -0.0230017595247907 1.0612245052117666 174 27 35
-0.2750107416559129 -0.0740737171195505 1.2377612082238285 153 25 40
-0.2389242431332088 0.0999676200663223 1.0064446150706758 174 91 57
-0.2175981463027460 0.1478485381477920 0.9605444427229730 125 33 34
-0.0888483319859320 0.0680841106677108 1.3201496779507598 156 88 69
-0.2469062982447706 0.1016911180615613 1.0250862143696118 209 78 94
-0.1730808239897283 0.1453629086565522 1.1710532227851624 192 146 113
-0.1759459505473262 0.1963658396948673 1.1033006289019380 157 110 68
-0.2680607596962932 0.0062784118226864 1.0940257352270957 177 42 38
-0.0888956259366882 0.0611889688871445 1.3312253668246130 157 98 64
-0.2181905953058887 0.1581046556555010 0.9862924090247103 155 42 36
-0.3672371674145769 -0.1131926527072232 1.1025133791720358 183 26 43
-0.0406438680834365 0.1573991131355101 1.2625480948323311 161 123 76
-0.2493124115669781 0.0146749486015340 1.1577470488338526 171 183 197
-0.2248897601326429 0.0294833611012226 1.2138933604442119 252 203 147
-0.2676823217822075 -0.0219232285928598 1.1159279789593251 250 234 25
-0.2260150905167677 0.1087126265894444 1.1355406261278496 43 25 25
-0.0905027372524011 0.0495553046560724 1.3380856536045325 132 66 32
-0.1868645616010085 0.1189303885595074 1.1826042892288560 196 178 116
-0.0965651637586156 0.0479487564600451 1.3357660502431901 143 83 49
-0.2546442396685229 0.0780985940653549 1.0556264550380274 150 57 24
-0.2501652570005464 0.0656594856311308 1.0264611495174225 149 55 3
-0.2213432362260934 0.0267038640994749 1.2287791254100098 253 217 185
-0.2232606892042800 0.0217192729556224 1.2166165857823974 207 167 131
-0.0026583335055801 0.1303808235326383 1.3078284506974025 79 30 26
-0.1910537149409251 0.0329600476259952 1.2698223104151833 177 124 93
-0.2261831298106689 0.0191362174056031 1.2147437491260502 255 244 216
0.1107796832158915 0.2354530949496491 1.2264264455572502 126 104 91
-0.2126920299338122 0.1132389776693097 1.1571257873245628 216 220 183
-0.2146603425958626 0.0299323387157492 1.2544717661910534 108 66 42
-0.1961771033949918 0.0301974476659737 1.2688373509116337 169 127 111
-0.1061760999268976 0.0085153745764495 1.3443520024435167 151 114 85
-0.2383661671699734 0.0802829551136359 1.1465539318863869 192 190 177
-0.2332856528966503 0.0082437504012844 1.1947339030935515 215 176 143
-0.2247910946764702 0.0176387224142167 1.2339287703592379 201 174 147
-0.2397084233304208 0.0002499189934071 1.1809348735719791 139 127 115
-0.2396050951977290 -0.0001194233157704 1.1813397041580014 139 127 115
-0.2779400049268632 -0.1116710607502082 1.2462713615358458 65 46 40
-0.2752381156080447 -0.1120882282163166 1.2457097227480078 65 46 40
-0.1154974713138471 0.1881218752133973 1.1409231438379890 139 46 41
-0.1507645237178268 0.0956983893754814 1.2517370111079542 97 62 58
-0.2467529561580022 -0.0245094949439705 1.2475397591481687 219 179 120
-0.1041488833359685 0.0957614197722168 1.2852349036810646 143 134 95
-0.3520364775610264 -0.1387792775487836 1.1609401929488679 195 74 93
-0.1430869842054838 0.0895236256904402 1.2632154382602461 63 31 36
-0.1322447645722685 -0.0382633690382933 0.8964122338273910 136 163 146
-0.1880392847541038 0.0804809763834107 1.2327774039387951 167 137 111
-0.1897344250695087 0.0789622673063889 1.2320144109367324 134 43 48
-0.2429788958615975 0.1333376370083848 1.0056984910655815 133 74 42
-0.0894944640819594 0.0918031379113210 1.2975187043855620 113 86 56
-0.2598233111529801 0.0331295640594718 1.0750256375491682 231 81 108
-0.2882057958976372 -0.0582641328888165 1.1715492183967029 191 44 60
0.0145405185667849 -0.2204137292509718 1.3689998741673026 91 72 58
-0.1828677287172329 0.1671403900405552 1.1298140093353921 172 111 90
-0.2149722346192130 0.1535087292819003 1.0901695712937789 139 66 60
-0.3332879089194803 -0.1607295083069796 1.1961605895018737 147 137 78
0.0049676659620259 -0.2289891397162480 1.3654288662947045 55 36 30
-0.2692502997876221 -0.0511643428346156 1.2260446459282590 79 45 43
0.0114416888878242 -0.2408701094179114 1.3741481859200171 48 24 14
0.0379585848763851 -0.2518488006235136 1.4001829910631569 19 11 9
-0.2138389479219256 0.1390933426709059 1.1153547979611484 193 111 117
-0.1791968171908679 -0.2303318572881916 1.2693427794471499 26 6 8
-0.2037335499422250 -0.2345955903427913 1.2576829069811248 117 84 69
-0.2437876562197928 0.1063209177177938 1.0248046900320111 159 77 55
-0.2828819659031931 -0.0692467568599407 1.2123985071915140 239 245 255
-0.2780095666983363 -0.0704691267555465 1.2336673699697840 158 70 94
-0.2867855684104258 -0.0776081053263300 1.2108585809006656 225 83 105
-0.2249576645519350 0.1256822873911161 1.1104182542209877 143 104 107
-0.2663664331118771 -0.0819520101442408 1.2528232749557460 142 31 37
-0.2360497718922031 0.0877420586478732 1.0045099331317042 153 92 91
-0.2494155212623549 0.0928660485086160 1.0349254541444539 142 90 53
-0.1932612833407922 0.1277281442121687 1.1657302971287196 173 145 121
-0.0619325164984690 0.1524853280757779 1.2563904862910076 106 36 26
-0.2375238709198608 0.0752342057993145 1.0081208855673387 254 219 153
-0.3811265697973061 -0.1269817470590109 1.0786901607016381 243 95 119
-0.2375238709198608 0.0752342057993145 1.0081208855673387 254 219 153
-0.2663592696961983 -0.0977827925603385 1.2541996398207709 86 56 45
-0.2294622600048661 0.1113949079712103 1.1213256371558982 95 49 60
-0.2341949389559139 0.1022053725337008 1.1234539197050746 96 84 106
-0.2543206189432731 0.0696944683599387 1.0499045298185912 164 115 110
-0.2546938988036806 0.0697652073301354 1.0499988551480912 164 115 110
-0.3403822622759636 -0.1358027334016633 1.1759532860354793 176 7 28
-0.2479566265537230 0.0581068511231969 1.0252469913939661 255 252 42
-0.2477214356880661 0.0580812136606920 1.0251841020737609 255 231 145
-0.0577918011480541 -0.1966190853485476 1.3706354766413169 94 84 72
-0.2553798358371911 0.0627985911895683 1.0506900101043666 255 227 139
-0.1738233931075421 0.1110824800204342 1.2121101962571488 176 124 100
-0.3603578692991583 -0.1696375660332748 1.1639816717208837 136 108 61
-0.2557041970200354 0.0606199973845616 1.0517093905197161 146 52 42
-0.2598321933305178 0.0581203898364920 1.0677432239406566 213 119 133
-0.0046823920633704 -0.2446531812432740 1.3631171750936713 35 23 23
-0.2599606576002632 0.0549185484932350 1.0656889236732185 196 123 116
-0.1813210162098748 -0.2302891420972381 1.2634168213337067 43 19 19
-0.2599999663388285 0.0550675208000862 1.0682361620486536 254 252 139
-0.2288874966260778 -0.2420715519104389 1.2433610736863800 101 80 61
-0.3821295182793119 -0.2998362642620711 1.1092608434356410 53 38 41
-0.1894550554123928 0.1249395171864663 1.1751657220815761 164 121 105
-0.2229680258485645 0.0199571995162065 0.9679969645773895 190 43 53
-0.1960203791275318 0.2286464753578294 0.8060151136860113 239 38 56
-0.1930814883072238 0.2225788373913614 0.8000900495155386 230 66 100
-0.0325317577926141 0.1469309360416213 1.2776111982995515 99 29 17
-0.0325317577926141 0.1469309360416213 1.2776111982995515 99 29 17
-0.2268277096240888 0.1068815728401528 1.1382870786904704 180 168 128
-0.3668175582299546 -0.1142967227052768 1.0991789637070599 195 26 49
-0.1933359603593287 0.2186099712865677 0.8060197855176139 226 58 83
-0.2057200730367522 0.2389382339891885 0.9760148438448129 148 38 47
-0.2022237432118793 0.2130894803141467 0.7943796606434432 198 172 113
-0.3105589456069898 -0.0996147787003448 1.1885198730985960 195 44 51
-0.3084584698863887 -0.0985339624539475 1.1925007647575545 186 32 42
-0.2040979893785510 0.2130004205267368 0.7935418429887255 198 172 113
-0.2566400722122026 0.0356712074909404 1.0481641991526625 215 86 104
-0.2249489138439449 0.1876410571233244 0.8615579010901536 251 254 243
-0.2012078714350057 0.2181928658199699 0.8380062103341452 255 141 164
-0.2540902261501776 0.0174235220661444 1.0558073330033688 255 246 159
-0.2561235118324728 0.0733775217181659 1.0586382297910852 254 233 166
-0.1874756247444020 0.0822336043003954 1.2313090620703460 157 121 97
-0.2311499382025445 0.1714864173628349 0.8454334881302689 227 248 229
-0.0778223863697144 0.1285779922544251 1.2697605766062592 137 55 33
-0.2558116035483216 0.0177503090077261 1.0673511158323379 253 244 51
-0.2129280699270554 0.2088148134518382 0.9555816321370818 91 23 10
-0.2616743632944740 -0.1500989256455797 1.2569733708137889 112 84 70
-0.0144700675418741 0.0848770921806659 1.3437969886384769 157 102 48
-0.2588705843590110 -0.0013583560682053 1.0644562240993138 255 133 166
-0.2365174274651258 -0.0375984563752125 0.9703617835412139 255 255 186
-0.1681222002653903 -0.1918622519296079 1.2943198670192066 105 82 68
-0.2221832020210314 0.1450348191024367 0.8555395418042694 181 159 110
-0.2067653439796570 -0.2357967042871857 1.2543481569649322 117 85 64
-0.2708760975176067 -0.0048226689153676 1.0728398150157814 253 236 130
-0.1987805761080769 -0.2403811389255368 1.2574519675091658 37 11 14
-0.2559676664063090 0.0411457228501063 1.0471991117542807 255 251 77
-0.2158307018077873 0.1730542405702325 0.9709795669660916 173 41 55
-0.2580705979766227 -0.2471294442394126 1.2252049953077746 102 64 41
-0.2716417750828219 -0.0052647844413229 1.0785600191221008 201 103 118
-0.1196338376239999 0.2111321144662351 1.1023832802118834 71 33 30
-0.2497366362225930 -0.0517382687107569 0.9878394807566226 236 119 148
-0.1694725683196361 0.0925289022688635 1.2389921747811736 138 139 105
-0.1980652445499441 0.0363981645736247 1.2621240273493450 142 86 49
-0.2363754683390317 0.1248598441549977 0.8553919010263530 171 160 130
-0.0809662138167413 0.2042631820686285 1.1256482947921098 97 50 40
-0.0810027025014319 0.2044548573745278 1.1253575686929280 121 73 53
-0.2178424671804090 0.0301023829120459 1.2439609850942086 213 168 165
0.0140020169692683 0.2052501562892693 1.1966415866300106 142 77 45
-0.1912207609629712 0.0307345024889224 1.2670768378135886 65 30 24
-0.1427994133319224 0.0742163332575880 1.2772931986646463 159 118 98
-0.2622007483380920 -0.0272034760390841 1.1156950435971622 255 231 121
-0.1981006104697567 0.0312488708055019 1.2648666090827938 67 32 26
-0.0667924898142791 0.0762943490324545 1.3252370555531117 132 47 42
-0.2928627543204163 -0.0373521362893207 1.0446778428275667 255 251 118
-0.0493515146207750 0.2175674270289694 1.1538515836819052 81 26 21
-0.2614608882377453 0.0200731987374875 1.0998361647326129 248 248 52
-0.2967407712800111 -0.0367081301522800 1.0770586716132398 205 193 45
-0.2140866345808782 0.1438815336385234 1.1077435193297651 198 113 72
-0.2584856087555811 0.0165306875770968 1.0958333063152070 248 246 21
-0.2140611696581281 0.1439954110522001 1.1077055839007814 198 113 72
-0.2444069973842896 0.1149373405664520 1.0182169794186058 255 134 159
-0.2084716302211774 0.0056317967264671 1.2716075627678554 87 43 34
-0.2288638070603295 0.1427352203985468 0.9675939299132442 197 71 85
-0.2451957733336843 0.0666642649042518 1.0224122283145893 221 95 109
-0.0531058543954065 0.1643366428762833 1.2484643628276677 116 39 23
-0.2291839497995848 0.1462376410174437 0.9993063103966009 255 253 143
-0.1794936242572195 0.0491451517361946 1.2663567635944555 164 81 75
-0.2291894004415400 0.1462553278500169 0.9993116025598886 255 253 143
-0.2255073761787270 0.1582300590582555 1.0392534516256497 167 35 49
-0.2337081742843439 0.1413686960631511 0.9947465721374085 162 32 40
-0.1770755573673647 0.1801228871354716 1.1277287447450635 114 40 39
-0.1740695433617895 -0.0570189422904103 1.3120986223096094 122 87 68
-0.2480671963444551 0.0893423610815660 1.0298444357711860 254 255 33
-0.1740695433617895 -0.0570189422904103 1.3120986223096094 122 87 68
-0.2409270606995154 0.1362939875095563 1.0048644777033222 255 240 113
-0.1483247470520720 0.1376530584630477 1.2056373019724380 150 77 42
-0.2432118123941756 0.1342740263567941 1.0151026124491129 251 220 112
-0.2690510615946456 -0.0071943048166372 1.1517496632423467 155 38 56
-0.1731754230839849 0.1246035073135339 1.1979555043072168 178 146 95
-0.2527595015938408 0.0744487998615127 1.0453547558407368 211 112 133
-0.0265601532103624 0.1323799134035130 1.2930444201522244 139 80 48
-0.2362324154439988 0.0005402663582926 1.1963055469532129 168 121 91
-0.1930121882873683 0.1598845477943776 1.1238514665758632 207 190 144
-0.2569238119332269 0.0709657379924282 1.1052709180771751 190 147 175
-0.0633312651946922 0.1754494077755513 1.2149388918042452 150 57 49
-0.0632099312131429 0.1752952181860783 1.2149535494640367 150 57 49
-0.2428613264266482 0.1068503774500578 1.0206997202188195 253 238 137
-0.2465225311814307 0.1062811476314948 1.0281530689846516 253 231 120
0.0140601311438240 -0.2469783052188436 1.3757232492608769 105 88 78
-0.2435499835406204 -0.0272185053858106 1.2541925591684038 178 103 74
-0.0197817355018983 -0.2552430857944457 1.3620475915447177 38 26 26
-0.3802957573630316 -0.1232644473651935 1.0762497396706134 242 223 154
-0.2254902891322806 -0.1371047662836103 1.2803833461520377 130 75 54
-0.2955254184849801 -0.0747584224032857 1.1770379425231212 172 20 32
-0.3408518372841564 -0.1374369858911849 1.1827296051795877 121 30 48
-0.2533803877816282 -0.1461474946364949 1.2613053121188946 115 87 75
0.0401229582531494 -0.2104955968105140 1.3873078752163621 68 49 43
-0.3761912162422904 -0.1907914271762356 1.1636951961657651 77 38 33
-0.3653689104306460 -0.2931074461690756 1.1147609092694928 60 47 54
-0.2255256051345691 0.1869132855465535 0.8566302446877806 114 7 13
-0.2550571274946402 -0.0334607463561696 1.0158941078113111 239 32 58
-0.2481273012848216 -0.1132230119220977 1.2693510051201871 110 72 61
-0.1894450537083218 0.2679208573333178 0.9334084378259689 152 47 51
-0.2481273012848216 -0.1132230119220977 1.2693510051201871 110 72 61
-0.2334817269744838 0.1632400255740690 0.8708697767112765 191 172 116
-0.2627109158994420 -0.0514950647147234 0.9998177752686090 224 77 93
-0.1291872069304671 0.2018445554315347 1.1184745540435559 143 65 52
-0.1056040748568588 0.2242830629900947 1.0908394408703530 157 145 97
-0.2379837709101219 0.1375938871918689 0.8410829425905335 121 29 34
-0.2514293682593416 0.0937813727147134 0.9005082607593579 240 252 232
-0.0266263649575561 0.2326097538169339 1.1317128631630986 168 129 52
-0.2484383611485079 0.1205054298564082 0.8988783532504735 220 39 70
-0.2327886310983596 0.1385956972919175 0.9725661791756256 168 106 49
-0.1619486253142641 0.1663495111960891 1.1564228356710227 97 61 61
-0.2071108944257706 -0.0199221923312578 1.2815366439412939 49 29 31
-0.2352530248942424 0.1332743560486668 0.9658806322431361 214 66 88
-0.1629651901186192 -0.1414297269714478 1.3201438326529289 103 63 27
-0.0477141156302329 0.2033697647729260 1.1833356975308640 52 31 30
-0.2454451107516830 0.1313113558002533 0.8702098674163734 142 19 24
-0.2680269990336104 -0.0444090967176391 1.2076412888587835 127 137 138
0.0122524990136326 0.1986707190975513 1.2171486763912838 134 89 60
-0.2438625704928814 0.1284137829709232 1.0136327131714280 215 88 107
-0.2427224497610990 0.1280432292991455 1.0135360502908091 167 35 46
-0.3990244641469136 -0.2049647054175597 1.0241866547120184 93 46 38
-0.0041498171333181 0.1860449831829356 1.2250810314635090 109 37 25
-0.2283832579828044 -0.0514727990908064 1.2740477127950753 147 112 70
-0.1619765211111888 0.1486534899338400 1.1788921996615733 186 179 137
-0.2315689265610512 -0.0499415976456380 1.2740864786092299 147 112 70
0.0118306654847788 0.1579611195842259 1.2829017116170049 142 84 47
-0.2466838193723869 0.1281512585523851 0.9943084353710797 240 66 101
-0.3810300831293799 -0.1256926666719011 1.0890593167782412 193 25 40
0.0148386982326868 0.1122976716100488 1.3317672875726685 123 43 18
-0.1675218309958945 0.0957208414985522 1.2406751198298762 59 37 40
-0.0479155191586338 0.0497854048278311 1.3472228315486836 98 34 22
-0.2598476527035797 0.0384909545483330 1.0748648302089354 252 70 108
-0.1575160981950069 0.1438506002261782 1.1885045304999196 173 156 104
-0.0703759706949777 0.0716671271775514 1.3312070791962833 62 27 25
-0.1991993927509824 0.1843720291212015 0.8749649221280944 200 13 32
-0.0722197480055443 0.0719811888805583 1.3312204266442793 72 36 36
-0.2205610624207315 0.2251659680089576 0.9551765564735343 200 32 55
-0.1677700032687467 0.2414668284708762 1.0306748892344813 131 33 24
-0.2156748664308826 0.2112097256946197 0.9657058808904946 216 46 72
-0.2732052575555968 -0.0537344662488171 1.0167108779732528 248 239 10
0.0139818195540698 -0.2551480912289177 1.3863873545551118 28 17 15
-0.2338151917150480 0.0197922866477403 1.0016553648283331 248 89 117
-0.2651800672285271 -0.2400961972043594 1.2220227177986136 85 49 27
-0.2536218687664745 0.0721083199165452 1.0506901385309499 251 235 87
-0.2295208220541618 0.0004279066046011 1.0021528525776393 254 250 55
0.0430926433854651 -0.2434185157597143 1.4007713956389496 25 15 16
-0.2152892020747316 0.1116241092124773 1.1545008991586145 192 188 143
0.0521042966610578 0.2225427596806960 1.1815041747461248 36 34 37
-0.1710705554619111 0.2111994343191749 1.0804374259372675 145 100 71
-0.3749626964302100 -0.3001199268989242 1.1002470015566990 61 39 42
-0.2520299047009531 0.1005577650006173 0.8111073828740415 100 75 81
-0.2543245393862845 -0.0222054302653733 1.2142615237168131 241 245 212
-0.2393539388278778 0.0335963056025763 0.9497549440306733 234 57 83
-0.2731901774500865 0.0955647224624106 0.8365714882785981 117 86 84
-0.1522162406184212 0.0848436685488701 1.2479647045244340 92 66 39
-0.0803559483757795 -0.0874693314109451 1.3609631343893829 123 62 31
-0.2927264295183237 -0.0462201025342694 1.1112521396890818 168 16 28
-0.1884750272490327 0.2818422427159302 0.8553398307120559 175 122 52
-0.2489240269225599 -0.0509119149664766 0.9878688789153004 255 164 184
-0.2211196218234152 0.0483219472742708 1.2195764433213938 255 243 218
0.1087113139030613 0.2365829454862842 1.2183487477732113 74 42 21
-0.2210842037364338 0.0482312540273104 1.2195451553921242 255 243 218
-0.2514199645480695 -0.0401996140794566 1.0111702706915315 148 39 0
-0.1602325444884310 0.2734923135168502 0.8927054100655835 119 21 20
-0.2540052445733174 -0.0452128398467730 1.0051936146944032 175 92 76
-0.2523454442165093 0.0937915789699813 1.0452168686354550 253 255 120
-0.1169937481940413 0.2054855106808250 1.1078824697734082 59 23 11
-0.0753850582801956 0.1088027461425458 1.2947867079621573 154 90 46
-0.2032049144368402 0.2569502982803730 0.9371047907841259 176 12 23
-0.1758378081085314 0.2692854733913430 0.9320703475845276 85 24 23
-0.2070626430992403 0.1667708991963799 1.0081115913362055 251 195 148
-0.2182562039950898 0.1577818418185191 0.9862447948792228 162 44 34
-0.3700059029920030 -0.2677116056272192 1.1288810431190672 186 145 139
-0.1600005106795792 0.2619518664063255 0.9791805425114986 172 164 118
-0.0951418558470328 0.1432306663529804 1.2329680519656558 123 30 0
-0.2014523995797927 0.2504104218081870 0.8114070470974291 255 123 144
-0.2176526921719032 0.0406352060329309 1.2314799059970287 255 240 222
-0.2231238916483102 0.1487389894411096 0.9665547240028445 207 45 60
-0.2081310851350702 0.1712153270012902 0.9795089819878446 177 21 43
0.1036010453877113 0.2291998032100480 1.2255794944794336 32 12 1
-0.2242819528464711 0.0868365224492062 1.1719941752414309 100 46 59
-0.2270187226543092 0.1437464057740478 0.9609856759941939 255 233 163
-0.1972216349228758 0.1888962726404052 0.7806734285727529 56 16 4
0.0959721967614867 0.2259047025508262 1.2284780960109185 99 70 56
-0.1400563881702376 0.2626558932226683 0.9827126540001601 39 20 5
-0.1400563881702376 0.2626558932226683 0.9827126540001601 39 20 5
-0.1600426988716897 0.2605487781558019 0.9808539790274281 159 157 108
-0.1255349046326132 0.1391855840003931 1.2190309441429836 58 17 11
-0.0558750301241673 0.2088919111236645 1.1569307353539531 164 108 75
-0.1511695318036703 0.2562477083319301 0.9980307615414583 133 119 72
-0.2447032770009934 0.2422776724332360 0.9740204793623343 163 5 6
-0.2415010428636670 0.0735116949325090 1.1507072421075708 190 201 185
-0.2899593380127986 -0.0243868706589988 1.0576595865879852 193 48 61
-0.2347188595228103 0.0905264781557029 0.8401505271716312 115 122 138
-0.1572533282171767 0.2534878989433095 1.0040965671003150 117 25 12
-0.2154377485864136 0.0374593862894845 1.2419759680900797 255 242 213
-0.2409174073480455 0.0875027350344504 0.8326820516432009 152 126 125
-0.1400947958063516 0.0413720866416613 1.3032816266123191 162 58 57
-0.1507266052248905 0.0956885221911276 1.2517265985259598 97 62 58
-0.2280818718595843 0.0235755645431876 1.2048059782368019 255 254 236
-0.2135603267641518 0.0376688798755874 1.2446456775876813 240 207 153
-0.2033390231901445 0.1842076008485762 1.0749869707700970 227 232 212
-0.2311854364221473 0.1385964748636692 0.9607319100597842 113 45 0
0.1096966552942393 0.2210650874059063 1.2498650960007001 128 99 59
-0.1972067227844534 0.1823080799279480 1.0888622347341201 182 160 111
-0.2740090696250668 -0.0650998441431397 0.9926038465081021 220 46 71
-0.0979731696664954 0.2502270520653932 1.0326098412620188 37 26 6
-0.1689872118474547 0.2434936969709859 1.0242725954320191 89 7 0
-0.1666746111267583 0.2602915632992943 0.9802210997810945 103 82 35
-0.2128893530032549 0.1832060237509523 0.8767069941904317 216 166 117
-0.1609726124423351 0.2465785278956310 1.0195850422197876 123 13 12
-0.1662179419437504 0.2603304139979846 0.9800638696120760 91 74 18
-0.2218819171613406 0.2155886860841534 0.9480498156139688 142 29 31
-0.2329245614434431 0.0133191219839339 1.1930031119522098 255 255 228
-0.1617200115374173 0.2433851724908081 1.0308982224601908 174 145 111
-0.2347557901365871 -0.0187696545420748 0.9744159523500724 185 40 47
-0.2051781140024549 0.1825990251531366 0.8773313499378500 138 3 7
-0.1458277646358375 0.2575375558847233 0.9950291407924265 177 102 81
-0.0805788932619446 0.1905762990079265 1.1574715041412569 170 109 81
-0.1605758958839849 0.2409169883188768 1.0356946893993759 122 16 3
-0.0879505917085805 0.2459482807461877 1.0539736807032032 168 162 112
-0.1217031187098421 0.0374306988789861 1.3263754012389748 115 35 28
-0.2962315128473473 -0.0394202466181345 1.0399018768494459 179 51 38
-0.1351045285929582 0.0871389212749028 1.2714471885735725 156 86 76
-0.1285738162123757 0.2546287722851538 0.9966737755855821 156 142 95
-0.1540932689554287 0.2437163806636961 1.0299292368136923 118 9 6
-0.1894796823934953 0.1757701326323979 1.1086410083314289 226 175 154
-0.2393220165529890 -0.0053829586035219 1.0130715200737592 179 49 15
-0.2415879709516378 0.1340286402509273 1.0002231133874404 192 41 48
-0.2352097549018436 0.0046662217157392 1.1924344481083990 230 193 141
-0.1094652263015075 0.2412171952828388 1.0592323116003295 28 8 1
-0.2226758131148391 0.0223490680085612 1.2433728519199849 206 165 169
-0.2532252860957906 0.0325463332052565 1.0408543604431710 153 100 50
-0.1743882154596460 0.2328387722086136 1.0423577760374705 128 29 23
-0.0685327091743627 0.0844339957675951 1.3145552846996895 53 0 0
-0.2264526210859728 0.1650098361655700 1.0876346661009757 143 142 124
-0.2175623051256296 0.0250127132111256 1.2542263653626893 189 187 148
-0.1874317372143923 0.1729641219994527 1.1160945227059509 211 183 171
-0.1444168978368986 0.2360181478058579 1.0519022879029938 74 22 8
-0.1476515157247990 0.2353457133046334 1.0500106781335750 172 160 110
-0.1672625347593606 0.0820228473178722 1.2535673828753733 31 6 2
-0.2456553147882784 0.1233795260485167 0.9877456359844512 138 58 35
-0.2551866444354849 0.0721018859439325 1.0497258809587755 229 201 76
-0.2287811824533804 0.0676932465768823 1.1875334986434756 236 198 161
-0.2013301855275727 0.2343792750403698 0.9785255360627128 99 32 50
-0.2165360486045625 0.1975145868774653 0.9634785410770125 145 36 0
-0.1747526303531931 0.0794754804130702 1.2467901325618298 153 154 120
-0.2346178831036629 0.1840218863334951 0.9312728981112390 139 86 96
-0.2294791848887659 0.0130672465827091 1.2345941476423745 220 189 132
-0.2441866000681012 0.1264514939584514 1.0125336986844471 186 39 55
-0.2307224755641897 0.1857392908091204 0.9425862995374797 111 27 0
-0.1997035570718357 0.1621331373378641 1.1100984230617548 228 226 178
-0.2548619754146997 0.0146918417384833 1.0683547250616172 171 76 20
-0.2231635598800443 0.0153956365209264 1.2534211704755809 164 156 109
-0.1881733655070672 0.1657924754090903 1.1303525695412147 202 128 83
-0.2433555283328761 0.1094626343518767 0.9877212151194151 153 56 24
-0.2875744468593334 0.1412598458950235 0.7753924353962263 218 245 254
-0.2013733431691254 0.1566230262005148 1.1145898320979708 232 221 167
-0.1632093468005582 0.1343340592384885 0.7613930464066877 233 178 95
-0.2248573885976061 0.1464614794078739 0.8581497211059037 198 162 86
-0.2357577199687630 -0.0118533430759719 1.1910764507097502 122 97 67
-0.1254660541488727 0.1260851369872435 1.2412014680576284 175 158 130
-0.2123805548384165 0.0644307939626419 1.2220255205405453 197 148 115
-0.2137702880412350 0.1461750259924895 1.1042271346239676 167 123 96
-0.2235160158358436 0.0118380799996995 1.2560748195506302 188 184 139
0.1574009283908538 0.2545387612962655 1.1590668039140635 171 141 29
-0.0579797169532686 0.2310909110453347 1.0970539235467793 131 88 46
-0.0620921091260801 0.1755074018254246 1.2248014805513863 166 66 43
0.1028558991232935 0.2476630640211146 1.1558734902235837 123 102 85
-0.2362222578085857 0.0001447627726456 1.2235168549247279 255 245 215
-0.2413520118940287 0.0432534891243856 1.1603964194074230 91 81 71
-0.1807751486453378 0.1581899362824610 1.1450307375716953 210 197 119
-0.2225472108239085 0.1776621689201238 0.9532869110728880 246 126 153
-0.2277942952827107 0.0097500714361361 1.2497519641049728 231 223 187
-0.2405287131682907 -0.0072378929297320 1.2068989896261402 255 255 228
0.1263921610866302 0.2500268417992513 1.1555633855942060 171 141 17
0.1143775114288184 0.2498936983015482 1.1662473036863716 131 100 72
-0.2408363741272115 -0.0430385982644943 0.9823057645006503 182 23 19
0.1421888051499516 0.2518232826183880 1.1754915370588346 85 59 32
-0.1413723942705283 0.2402681696784001 1.0424124210547967 160 153 99
-0.2234983309332623 0.1769277760927507 0.9517399564137833 186 74 90
-0.2390234208016657 -0.0044376391681985 1.2275464200563175 243 162 132
0.0048773228809777 0.2367327653406983 1.1253397625315993 146 72 47
-0.2569595044881342 -0.0002862039972173 1.0675885624097519 250 142 158
0.1194547103398225 0.2496910449483497 1.1718554508700874 122 98 70
0.1187250167001817 0.2496528670671209 1.1719165533164495 129 110 80
-0.1641604785710043 0.0633397492089684 1.2648008139178168 160 106 72
-0.1362391726973674 0.2417131949432082 1.0474984501372395 195 114 93
0.0074171656045327 0.2361752099941974 1.1281179262904353 144 79 41
-0.2336066258594942 0.1683305624153468 0.9362623500976002 150 62 58
-0.2387737000985033 0.0942221344422129 0.9898737112804582 192 104 90
-0.2535042613478327 -0.0012313500596828 1.0721621613480501 249 240 103
-0.1741630138755221 0.2335052077112675 1.0405822746791855 103 51 55
-0.2445255801880915 -0.0111144327126793 1.2245286523932433 247 215 200
0.0100304645409316 0.2332511491277684 1.1364136820923849 150 83 41
-0.2169173182553290 0.1780380968772960 0.9663514677048451 105 16 8
-0.2435028893339420 -0.0092931793198875 1.2297433128602389 195 164 159
-0.2301848269747952 0.0456128341491640 1.1897608669231909 219 186 143
-0.2438698786661299 -0.0102439037965889 1.2306248440152852 211 183 179
-0.2472957485550697 0.0902746115172222 0.9012941492060850 252 255 255
-0.2065677083064630 0.1422074149816666 1.1246805254844983 238 233 191
-0.2207174842561801 0.0022171665085574 0.9486195332520533 254 253 51
-0.0250923365907315 0.2280172309395398 1.1176259456244100 164 122 50
0.1280168462897469 0.2486567645846365 1.1923973799068976 62 34 12
0.0005088963872153 0.0509150035197815 0.9906260291220642 216 151 97
-0.2443461675911174 -0.0118528276354750 1.2309987566552527 170 124 134
-0.2144409075725108 0.1744477423561182 0.9694634527334645 153 120 101
-0.2687638103348628 -0.0091903590316897 1.0815862759134034 176 71 65
-0.2012427159645400 0.1434978191613011 1.1327651948893946 200 154 120
-0.2151032162960002 0.1729917022524347 0.9662626394909113 152 109 75
-0.2439069182868013 -0.0130024160641702 1.2390813715608255 248 241 223
-0.1596940475707156 0.2164345939551423 1.0838393940048872 170 162 123
-0.2437995859791693 -0.0130033362534683 1.2390162391416844 223 206 198
-0.2147210556991550 0.1361258623092272 1.1167625046845993 171 91 94
-0.2504838910650638 -0.0204914565598375 1.2233041710012926 253 242 222
0.1028379522189794 0.2441481748416128 1.1860166359909203 138 111 94
-0.2223506537434695 -0.0018404485881811 0.9555144776441360 221 32 52
-0.0631997097163750 0.1599194388538966 1.2401764766074921 132 54 15
0.1044025958692863 0.2430397500446048 1.1920434665843966 137 107 83
-0.1724030846014133 0.1464932340375358 1.1701492350356615 188 139 109
-0.2453876265022993 -0.0161064715654773 1.2409871924688829 237 225 211
-0.2486234878337298 -0.0195673537953532 1.2336919871660481 129 127 149
-0.0708186887022645 0.1077662497970975 1.2922810133057134 104 17 7
-0.2725141040044468 0.0002561216711446 1.0984531150644261 226 71 89
-0.2086643844018938 0.1344628083401817 1.1318573675153476 218 196 147
-0.2560003582518320 -0.0270358488074826 1.2173464189501089 216 212 177
-0.1293012952645748 0.2139145065207992 1.0955210724568292 92 42 33
-0.2560003582518320 -0.0270358488074826 1.2173464189501089 216 212 177
-0.1364373985718890 0.2135395799686251 1.0947009954364080 141 73 54
-0.2120964895900220 0.1326619869865615 1.1274451620676951 167 117 84
-0.2358871865588971 -0.0164747530415612 1.2567047117142136 95 71 59
-0.2185398598732706 0.1602677747884999 0.9549299707368165 137 43 9
0.0903658687695437 0.2393816803270291 1.1942792126507449 110 80 69
-0.1865813194364360 0.1413848494081762 1.1582732048603634 185 144 112
-0.1613177969144783 0.0495314721087995 1.2849663850456559 173 102 72
0.1132684144194039 0.2425218278843839 1.2066137831632096 48 18 10
-0.1884803062475650 0.2058216873988362 1.0728506688872959 176 121 91
0.1160682731178895 0.2437304303061371 1.2078388046308814 141 111 83
-0.1817002191106155 0.1406948923621737 1.1645568906171075 218 209 168
-0.1615227721144151 0.0461696880082570 1.2867362900316996 170 138 113
-0.2393141944927883 -0.0199226932658308 1.2552829269521515 168 151 141
-0.1927540871204867 0.2015762902375201 1.0625774283985665 210 190 163
-0.2521724303769032 -0.0254688422641696 1.2339299799808450 123 94 116
-0.2225975828230776 0.1241522359221736 1.1174449571539087 87 46 60
-0.2801070321453398 -0.0039497580908045 1.1008734042650026 198 21 47
