ply
format ascii 1.0
element vertex 694
property double x
property double y
property double z
property uchar red
property uchar green
property uchar blue
end_header
-0.1831653776304171 -0.1476286645554661 0.9655818937904337 255 227 117
-0.0907066436337766 -0.0780907393678849 0.9024987957750366 47 58 76
0.0317373851015580 0.0915838150647261 0.8867897337967139 7 2 9
-0.0907066436337766 -0.0780907393678849 0.9024987957750366 47 58 76
0.0278348128234772 0.0923074620877999 0.8828888746516219 17 15 20
-0.1266285026149011 -0.1033819951337968 0.9208336504069464 110 86 99
0.0278348128234772 0.0923074620877999 0.8828888746516219 17 15 20
-0.0297375347138104 -0.0412294288006333 0.8751444672329298 30 30 18
-0.0679547158848619 -0.0467051120883812 0.8694711856851789 218 234 171
-0.0293757963007835 -0.0392421659415595 0.8744769313224152 52 56 39
0.0049702460792875 0.0944363823122243 0.8694879663256576 23 12 0
0.0049702460792875 0.0944363823122243 0.8694879663256576 23 12 0
-0.0482336536455536 0.0831602955118705 0.8533174793429928 121 123 76
-0.1150628383049813 -0.0915570209104981 0.9140657120974851 109 121 143
-0.0941124053443354 -0.0786229274467514 0.9044883121478526 242 255 255
-0.0998692611973176 -0.0812322122757243 0.9073028504872555 254 254 255
0.0891716412442480 -0.0369361960236444 0.9351467438774527 157 171 182
-0.0292158709599967 -0.0371343285492599 0.8736457944077243 196 204 119
-0.0457114241469843 0.0860481840270593 0.8516026068026957 16 18 0
-0.1173198127522701 -0.0900889082440058 0.9201151765689045 254 254 255
-0.1021172378106837 -0.0824314084340516 0.9081657540221898 248 251 255
-0.0276876947324335 0.0930775296050042 0.8510915525733486 15 0 0
-0.0276876947324335 0.0930775296050042 0.8510915525733486 15 0 0
-0.0954778044377474 -0.0781400256806802 0.9051493440585414 241 254 255
-0.1898245820602121 -0.1473796703121031 0.9683529702817585 255 254 253
-0.0273806672922804 -0.0361142134683818 0.8738666825608964 27 29 7
-0.2066701831747429 -0.1612016138738017 0.9825841922086570 91 127 123
0.0374120612020415 0.1027277019943690 0.8930313703187908 27 21 25
-0.1782296025147364 -0.1363049197282549 0.9589281800108688 248 254 242
0.0372861551307516 0.1028145263717280 0.8929851094725079 34 27 17
-0.0465176101504210 0.0908923889026404 0.8515204959644675 136 131 99
-0.2209007373621426 -0.1697802596709450 0.9946940527195002 126 170 169
0.0050240337432868 0.1021655525721275 0.8706387512090656 36 16 0
-0.0272960084560546 -0.0334445456821160 0.8729158501127701 188 197 118
-0.2209007373621426 -0.1697802596709450 0.9946940527195002 126 170 169
-0.2120253808616507 -0.1637454036404202 0.9879446455397667 249 255 253
-0.0271654581548179 -0.0335070130625122 0.8733499273811191 209 211 146
-0.0962648428403123 -0.0750228913427185 0.9052981829969242 72 56 66
-0.1084706416969537 -0.0810115206123092 0.9115343951072651 250 253 255
-0.1119433628664396 -0.0831181872825457 0.9132113106895398 237 255 255
-0.0583456865856963 -0.0351507396371225 0.8626912026755851 211 215 154
-0.0583456865856963 -0.0351507396371225 0.8626912026755851 211 215 154
-0.1748562914573968 -0.1284720947773177 0.9550316032382682 244 255 255
-0.0376149826052854 -0.0309214018810125 0.8682992631208046 207 223 158
-0.0376149826052854 -0.0309214018810125 0.8682992631208046 207 223 158
0.0092587580134114 0.1074249753960109 0.8741656960631128 19 8 0
-0.0282964496453541 0.1044098581465298 0.8528952077457312 25 8 0
-0.0136527234439276 0.1063307041107720 0.8607637928460623 27 15 0
-0.1091330200392089 -0.0777152013724503 0.9120714085462944 83 71 85
0.0373373648920992 0.1109986011207978 0.8929726142085790 28 31 40
-0.2281644570080748 -0.1730412234828329 1.0028174967421815 81 124 117
0.0373373648920992 0.1109986011207978 0.8929726142085790 28 31 40
-0.2281644570080748 -0.1730412234828329 1.0028174967421815 81 124 117
-0.0385623005115255 -0.0280486719953712 0.8665389714225273 202 205 136
0.1488811457048522 -0.0155960671422587 0.9538271422988543 31 48 66
-0.0386140760256988 -0.0280247570839808 0.8664178161803920 202 205 136
-0.0582058144871013 -0.0316878289571562 0.8612437504226844 205 220 153
-0.1028909681712879 -0.0741480753423565 0.9081137259789845 249 255 255
-0.0742618541692806 0.0861475714526761 0.8606061254578522 25 11 11
-0.0742618541692806 0.0861475714526761 0.8606061254578522 25 11 11
0.0282981872989266 0.1117394031217667 0.8858009649605634 0 1 5
0.0345910076118054 0.1128415560680654 0.8908105012336506 6 8 21
0.0345910076118054 0.1128415560680654 0.8908105012336506 6 8 21
0.2037476544538026 -0.0093691768185153 0.9794692848050182 12 27 48
-0.0097944202627559 -0.0235394740135527 0.8789091557212283 161 153 114
-0.2012759100735483 -0.1451737933458102 0.9748001560320263 117 158 152
-0.2012811854302184 -0.1451326069339089 0.9747562101856018 117 158 152
0.2099540773155062 -0.0098303835785224 0.9837542663795170 29 43 52
-0.2009986796951948 -0.1420580597041121 0.9740706301993539 250 255 255
-0.0730078271492808 0.0913290114267701 0.8619101074983156 20 15 12
-0.0093158174217606 -0.0206583996827136 0.8784075929066500 158 153 95
-0.1908278586372182 -0.1318907876483091 0.9646224202454199 246 255 255
-0.1606336372618376 -0.1060238780236124 0.9411398622229640 233 253 241
-0.0014920766978029 -0.0159615742818638 0.8802970771778710 148 143 88
-0.1836456306733613 -0.1213390623012466 0.9575705490378699 245 255 255
-0.0671626216624214 0.0993148567648949 0.8606417258074954 16 9 16
-0.0671626216624214 0.0993148567648949 0.8606417258074954 16 9 16
-0.0073389492491901 -0.0146259888160682 0.8776932675195738 24 20 0
-0.0011704531699495 -0.0131085224791380 0.8806559546138892 147 137 86
-0.0351005086083702 -0.0142286229511089 0.8629281087980315 205 215 155
0.2146126209547412 0.0070698794663329 0.9775300298364176 173 183 192
-0.1799224549872878 -0.1096119336997605 0.9527308589489041 71 97 88
-0.1848075435744369 -0.1181899476908405 0.9576248162231191 241 255 255
-0.0439323361459291 0.1171550598788802 0.8487527456111397 144 142 104
0.1003595271622484 -0.0014141197568964 0.9250079211339161 38 38 46
-0.0288864954162260 0.1211061322119697 0.8578363850832734 151 139 101
-0.0341809006747478 -0.0108855076314970 0.8619084911118645 191 199 122
-0.0288864954162260 0.1211061322119697 0.8578363850832734 151 139 101
-0.0409971986153635 -0.0112925074280665 0.8592998062371630 4 6 0
-0.0198432036422571 0.1244656680973521 0.8588744702935789 52 32 0
-0.0151776876803094 0.1230104588138805 0.8678413453799573 14 8 0
-0.0076300796724437 -0.0092000769578035 0.8756917023060241 165 155 104
-0.0618927765682854 -0.0146722388026281 0.8534259223275057 13 16 0
-0.0290358011303741 0.1240108825305201 0.8578830575264703 155 146 105
0.2200593761373868 0.0199065620132473 0.9751279873966139 16 27 47
-0.3348194337150120 -0.1883648301393780 0.9978963160184581 103 47 50
-0.0379092700579917 -0.0085024429664263 0.8595942553575672 21 17 0
-0.2024533882248377 -0.1252313251776993 0.9743844225729106 230 249 243
-0.0405401689806484 -0.0083254797874658 0.8587399860719341 23 22 0
-0.0405455628281264 -0.0082205541832206 0.8584346114535818 19 22 0
-0.1987008018027715 -0.1240965666067878 0.9690922090157507 245 255 253
-0.0534619653465087 -0.0061557393516528 0.8532872080772110 221 231 168
-0.0060929802379242 -0.0018440648299653 0.8758854260878909 150 133 87
0.0004906019188895 -0.0006581614744424 0.8784110291172799 147 135 75
-0.0394842111038462 -0.0066303236024147 0.8583692810379633 190 197 146
0.2098301796171111 0.0164496635294262 0.9707531230919855 0 4 21
-0.0700056896697478 0.1198143590189910 0.8573178548485094 109 108 122
0.2212521059102300 0.0220552790825440 0.9748131600950637 175 189 198
-0.1761048445354358 -0.0982872334475124 0.9467123200296107 237 255 252
0.2186660432026154 0.0243638694330325 0.9731902905266564 22 29 39
0.1952572539219204 0.0170044906524868 0.9632386976688663 31 53 74
-0.1745266402506845 -0.0964207052432855 0.9464784135671552 19 35 24
-0.0340708494925535 -0.0028048297738998 0.8597285654615527 38 36 0
-0.1711341034612857 -0.0957955834348903 0.9444934689748885 132 163 155
-0.1711341034612857 -0.0957955834348903 0.9444934689748885 132 163 155
-0.0019976267170022 0.0054133732811810 0.8765130384965908 32 19 2
-0.0554521740469121 -0.0048034741350247 0.8524723185337367 52 57 27
-0.0522807586192368 -0.0008498934655138 0.8523236096651966 210 224 149
-0.0580177301005249 -0.0047857510217985 0.8517578910522977 51 57 29
-0.1352266827852764 -0.0656645661502653 0.9246372506987874 254 255 255
-0.0521576372044030 -0.0016664937916824 0.8526307009976416 212 224 184
-0.0599470025155255 -0.0032754049108342 0.8513282561298476 22 28 0
0.2089539901554473 0.0262566027612617 0.9674456820961997 151 167 182
-0.0573165207115308 -0.0003841322970933 0.8508845608482756 41 45 30
-0.1876921423461962 -0.1001842799302440 0.9562914998835125 249 255 253
-0.1249159060574482 -0.0358917506587163 0.8849072441392128 255 253 254
-0.1755267032507506 -0.0922152470199811 0.9459513991159844 91 116 110
-0.1755267032507506 -0.0922152470199811 0.9459513991159844 91 116 110
-0.1319238024423902 -0.0611158337140649 0.9220471007413881 252 255 255
0.2258052532290519 0.0296656294951807 0.9752896291535151 173 187 200
0.2241409478212537 0.0363320760813380 0.9737748515042244 12 27 60
0.0970031281998436 0.0208292069567227 0.9156950371707191 4 0 6
0.0967441702529609 0.0209271426830539 0.9160457257170733 4 0 6
0.2267619999213263 0.0315569974231211 0.9754875879528515 33 49 74
-0.0367112521434204 0.0088739513199504 0.8547934527535728 56 55 11
-0.1857983081668537 -0.0960908523753254 0.9553911120374715 125 156 151
-0.0047153267521729 0.0099145387430908 0.8743803746379530 144 127 81
-0.0015931851662113 0.0130440278074179 0.8751916267109460 57 37 12
-0.0015931851662113 0.0130440278074179 0.8751916267109460 57 37 12
0.2158052352273836 0.0325705316438248 0.9705756687264351 0 12 21
0.2157418808859416 0.0328353123784826 0.9695544184411136 0 3 9
-0.1488415481670600 -0.0616652118053236 0.9315193978373303 234 252 240
0.1701729078985151 0.0301118077558610 0.9483548108461073 23 46 60
0.1702392986714644 0.0297699548982834 0.9491693518782857 23 46 60
-0.0318355870055386 0.0120861494598941 0.8539930441106558 193 193 133
-0.1232216270414307 -0.0342703929300665 0.8894002919563769 232 249 215
0.2166982965375683 0.0362132884290082 0.9689969648984067 185 197 211
0.1562429500703079 0.0308216857884561 0.9425898340567470 0 4 16
0.1561954496777123 0.0310279154150137 0.9421330825556425 22 39 65
-0.1356101808648486 -0.0581914992980682 0.9227991616260122 245 255 253
-0.0320884124350617 0.0252982203273701 0.8532357418571757 218 229 150
-0.1642708920924332 -0.2165915413654090 1.0128791650853510 185 179 101
-0.0345736965991299 0.0158714855622401 0.8540177688008767 45 58 32
-0.0291537096838265 0.0170976530016414 0.8556576048058026 178 175 120
-0.0562315343039530 0.0203265129780493 0.8527898935231664 0 12 0
-0.1260382525766101 -0.0259207439889610 0.8963459535245766 249 255 255
0.1556836285918173 0.0352200915144300 0.9429331384966777 217 234 252
-0.0543675099548523 0.0122112216583866 0.8510561353804221 32 40 1
-0.0543675099548523 0.0122112216583866 0.8510561353804221 32 40 1
-0.0344865985110021 0.0176610878838450 0.8536010219415500 48 57 26
-0.0955075845155895 -0.0156526344360609 0.9007137526176524 27 43 6
-0.1128659064672136 -0.0178037905937140 0.8933770578435355 255 255 255
-0.1476932554012750 -0.0604818713763628 0.9306315495893585 255 255 255
-0.1459408653067373 -0.0592069234481846 0.9302241401424294 249 255 255
-0.1521958423751144 -0.0624927283587598 0.9333379387385218 112 141 137
-0.1521958423751144 -0.0624927283587598 0.9333379387385218 112 141 137
-0.1330638022704507 -0.0486442723213648 0.9084881796915948 38 58 47
-0.1249225747047685 -0.0230188244294730 0.8981902972943941 251 255 251
-0.1777757865261364 -0.0794961429980643 0.9507126836346375 247 255 251
-0.1249225747047685 -0.0230188244294730 0.8981902972943941 251 255 251
0.0147079659317263 0.0256047204136225 0.8798464084632351 136 126 75
-0.0339027313413717 0.0232335122343043 0.8526751605298960 36 44 5
-0.0486953037680281 0.0185359188277493 0.8528112511857830 40 46 12
0.0003055931068311 0.0352858893091272 0.8728047049021944 59 47 25
-0.0368932950495689 0.0235174142706419 0.8525486981296027 56 64 27
-0.0368932950495689 0.0235174142706419 0.8525486981296027 56 64 27
0.2286990444275048 0.0536641778798397 0.9749637143823818 19 43 67
-0.1033436634681845 -0.0184762177091701 0.8923757625281173 52 80 57
-0.1143450171817317 -0.0222100077412063 0.8931986521614851 248 255 255
0.0065498531444137 0.0437160168700197 0.8739328698778852 185 186 142
0.0021154816586504 0.0291614845137400 0.8743992834458487 158 151 99
-0.0358787179891874 0.0279390104742756 0.8521593906703566 36 54 4
-0.0358787179891874 0.0279390104742756 0.8521593906703566 36 54 4
-0.1573434858537137 -0.0560040294153301 0.9347594420267016 124 147 141
-0.1573434858537137 -0.0560040294153301 0.9347594420267016 124 147 141
-0.1559875524430677 -0.2321391456134494 1.0550815685068342 32 14 0
0.1893006470801680 0.0523428202498007 0.9576921664843547 31 62 82
0.1585368328438321 0.0505228829402302 0.9415644446945145 28 25 32
0.0035971224342784 0.0510428545026934 0.8715454696837329 168 167 111
-0.1578994271276012 -0.0545012937751455 0.9359046150785274 244 255 249
-0.1223217785030065 -0.0080077674926369 0.9044483299465815 36 42 42
-0.1028885886442799 -0.0128012265062426 0.8933090412612988 48 71 29
0.1584987169201170 0.0541617688151004 0.9406220868518175 0 6 11
-0.0615375220776844 0.0243124902828076 0.8527254909462995 76 46 44
0.0021683323850646 0.0365314899114738 0.8734316789963992 175 172 127
-0.1088478993640770 -0.0025709421269621 0.9101020876945782 255 249 146
-0.1119930359716052 -0.0015680976314674 0.9149720958386863 251 110 126
-0.1184880432366056 -0.0097539903962075 0.9010915661842177 249 255 251
-0.1145430733737921 -0.0073067402210747 0.9012729601840104 249 255 244
0.2285564532154843 0.0758833742281814 0.9725003343132127 156 178 192
-0.1200441345764053 -0.0072799682525122 0.9039344301632249 231 250 231
-0.0494980698503960 0.0573351543117043 0.8555192514317748 200 220 169
0.2191386802552384 0.1005463139735098 0.9779760417436876 158 185 194
0.1605125087359996 0.0759144224255947 0.9430866034985047 144 140 141
-0.0128011222933455 0.0566635993614781 0.8605226782411632 51 40 12
0.2224155210561465 0.0830388086989872 0.9747274584932243 160 177 185
-0.0509067126446722 0.0464046892460683 0.8553678046294590 241 255 225
0.2176351667187831 0.1038889554084833 0.9762300010414910 0 7 15
-0.0117649995975993 0.0581750253207762 0.8604904902345214 147 131 79
-0.0075204827473660 0.0822636387059516 0.8621971977850382 136 126 73
-0.0112704959627059 0.0826558764883660 0.8600730033420948 135 129 71
-0.0098159521386179 0.0916434128193277 0.8613318061799353 9 3 0
-0.0521123524995547 0.0517034683575145 0.8563099233112741 14 24 0
-0.0416240193877633 0.0913828328553454 0.8485077605993668 108 117 62
0.0020650572286037 0.0687604183115137 0.8688108256559529 161 154 110
-0.0687953508631496 0.0836468181020978 0.8600700886747411 113 119 135
-0.0389287524890586 0.1001370881001288 0.8478874232264533 5 7 0
-0.0098530964834376 0.1088287878493338 0.8628930292406350 35 20 15
0.0326460933077482 0.0840656394827545 0.8859610707544074 11 0 11
-0.0723914230401387 0.0879589304114922 0.8607281284546365 116 117 121
-0.0723914230401387 0.0879589304114922 0.8607281284546365 116 117 121
-0.0691773653371427 0.0891369914536384 0.8602511213132944 105 115 116
-0.0123790154314643 0.0811463086096000 0.8587364193154250 1 1 0
-0.0691738917398833 0.0891400802435138 0.8602028052644520 105 115 116
-0.0467145268658213 0.0725958040706866 0.8530609465989533 19 18 0
-0.0673701399396489 0.0900718259526811 0.8602827983620911 38 28 19
0.0050746600490572 0.0855177035767559 0.8692813034278818 58 38 29
-0.0256655384497921 0.1078182664631581 0.8541832113082185 125 118 63
-0.0264356332060856 0.1097396829381360 0.8537611052408424 16 10 0
-0.0305972140268396 0.0833292549997180 0.8500337297952921 16 5 0
-0.0748242463059221 0.0901779507612832 0.8605594865193148 99 103 104
-0.0098864607979774 0.0897356603328825 0.8609470749785645 35 25 0
-0.0219365346129228 0.0898315431514450 0.8543315039983548 29 17 0
0.0039187168578932 0.0928212000817509 0.8695449453823065 141 127 88
0.0039187168578932 0.0928212000817509 0.8695449453823065 141 127 88
-0.0127696065632637 0.0919825011661016 0.8594775991589519 37 16 11
-0.1629362713279067 0.0513448916109254 0.7924741494829254 101 77 65
-0.0117631901899124 0.0931465499445455 0.8613530549985285 137 125 87
-0.1575006619752420 0.1097452559788679 0.7483878248388870 104 76 64
0.0054530515821858 0.0968877799465931 0.8700966137467493 28 15 0
-0.0085567123875192 0.0955109541617673 0.8632588377890691 34 20 0
-0.0687542569145074 0.0987696647332200 0.8608205464849390 123 128 134
-0.0739303681164664 0.0969649522457361 0.8612887000530377 98 103 97
-0.0664474412917610 0.1011608388794788 0.8603641023539543 112 119 138
-0.0663757655690638 0.1011743553441629 0.8602734985226479 112 119 138
0.0057942609896468 0.0993929261379950 0.8703670327714024 41 27 14
-0.0458905409332258 0.0894589797267600 0.8514554639316588 129 124 86
0.0082696997657642 0.1008434002417407 0.8727041555041971 148 134 97
-0.0655362495481860 0.1031076911871116 0.8599290757588135 6 0 7
-0.0426035233559589 0.1158299685880674 0.8482100013254273 14 12 0
-0.0425963945395513 0.1158271602877743 0.8481897756266253 5 4 2
-0.0062000946080200 0.1226013439918602 0.8708271350614060 22 19 14
-0.0651496632040927 0.1082813195894104 0.8594859812544723 25 26 30
0.0078859025007660 0.1062302426455417 0.8732008264586762 132 125 73
0.1535713194289593 0.1262905456081691 0.9548279973219109 98 89 56
-0.0082256749395890 0.1099134914043069 0.8636409026071853 126 118 79
-0.1708444061414808 0.1418057144994708 0.7789679630278925 53 14 0
-0.0116360952588867 0.1098122568804186 0.8623433839141225 147 139 90
-0.0066685066603434 0.1103415640293837 0.8647974625913971 34 25 10
-0.0065605076596902 0.1103114060548102 0.8650264316828224 34 25 10
0.0301271048125249 0.1165655598263161 0.8880330656513783 139 136 143
-0.0129769144129577 0.1136175384863889 0.8634992213819082 11 3 0
-0.0276237410667288 0.1123906471067643 0.8535423407361855 132 135 90
-0.0426784219536048 0.1103571161931861 0.8471397822788831 17 12 6
-0.0725372439319217 0.0955732438444119 0.8607861825373587 3 1 2
-0.0725372439319217 0.0955732438444119 0.8607861825373587 3 1 2
-0.0724499455534037 0.0990943930730107 0.8613273476905112 114 114 112
-0.0705881933469867 0.0996496019374762 0.8609500150939964 31 21 19
-0.0705748641987330 0.0996376342060811 0.8610371261417508 31 21 19
0.0049350223581880 0.1212455776416822 0.8752416342018927 19 0 0
-0.1446469688559562 0.2307174034684631 1.0596422648651342 203 145 131
-0.0396792622454109 0.1168753064278927 0.8494939656273122 14 13 8
-0.0396678930205206 0.1168939472328314 0.8493686129419155 14 13 8
-0.0242598959434621 0.1194665211090646 0.8590512990961768 12 3 0
-0.0243744520789627 0.1197225215401691 0.8580016000032166 12 3 0
-0.0439356226437997 0.1184491056055438 0.8491933937794341 16 5 0
-0.0439356226437997 0.1184491056055438 0.8491933937794341 16 5 0
-0.0087894133669284 0.1241146057129833 0.8713171967189102 137 128 85
-0.1055375709665172 0.1523892614341214 0.8510914850156841 126 117 86
0.1595685870366466 0.0600901853131890 0.9412535985649486 28 31 36
-0.1044668303535321 0.1572752780370253 0.8395272552718163 131 111 74
-0.1054530581744204 0.1586761174363871 0.8461185718365957 107 89 67
-0.0061251231915328 -0.0361831114833253 0.8831694847076916 167 165 106
0.2141834387372064 0.0683666615051213 0.9683466342439574 170 196 213
-0.3160968630899283 -0.2879648221129475 0.9930644273490162 144 76 53
-0.0178357486540370 -0.0826677350532335 0.9024580294376452 189 186 105
-0.0125465135891725 -0.0656979872011020 0.8941332794097753 187 189 105
-0.1047552893930603 -0.0342056900236866 0.8690566485384258 249 254 231
-0.2310962403241178 -0.2099550645006775 1.0108654302964548 242 255 248
-0.1197834389468317 -0.0100407951553197 0.9014126666888580 252 254 251
-0.0313269595592596 -0.0015843233923940 0.8596894473616360 171 169 95
-0.0474456419268398 -0.0279447075035186 0.8643507470090797 201 205 110
0.2259879830676830 0.0790976822641192 0.9750902975835751 165 193 197
-0.0091880289102243 -0.0539587631245647 0.8894296777090058 187 186 106
-0.1135271672739950 -0.0038366292203537 0.9120333240756626 252 255 250
-0.1353193310891404 -0.1437235178832093 0.9458973856634779 230 253 197
-0.0665203710931841 -0.0546554943547724 0.8713961831958599 221 232 156
-0.0063602586722869 0.0613731521393752 0.8635953105136640 150 133 64
0.2548422701206673 0.0438184850503523 0.9852222424188453 135 117 71
-0.0562711687588585 0.0109114266250910 0.8511316044550323 218 232 153
-0.2101086368919109 -0.1696722723059749 0.9874510687364019 146 185 184
-0.0225974261390362 -0.0330837654058572 0.8749016674499455 180 184 100
0.0332094082559146 0.0745908749282784 0.8856883260938486 147 145 148
0.0332094082559146 0.0745908749282784 0.8856883260938486 147 145 148
-0.0761268491278024 -0.0931441417166845 0.8979253740337849 243 252 187
0.2201614184408231 0.0446961676784720 0.9708775134003363 170 187 197
-0.0626329199570310 -0.0041223982857010 0.8513599308575260 213 222 155
-0.0373562857695732 -0.0590218061376113 0.8819677918555797 189 195 123
-0.0315546131537979 -0.0322967731021393 0.8715586969959120 203 204 128
-0.0582052997627906 -0.0023570610411300 0.8511561666047439 123 127 104
0.2219851595702220 0.1016063755300774 0.9795982978222472 33 35 48
0.2216523970730882 0.1018709750886886 0.9787584850132478 29 36 54
-0.0348233352415014 0.0252696598136870 0.8532650495562671 215 228 159
0.2144637231811276 0.0561417334172683 0.9713450022932968 175 196 213
-0.2024220075192698 -0.1583110862819445 0.9785096299107101 245 255 254
-0.1016664873472240 -0.0783556356096645 0.9080509164630227 42 28 41
-0.1016664873472240 -0.0783556356096645 0.9080509164630227 42 28 41
0.2140073640702219 0.0602715078630062 0.9663787823652966 171 193 207
-0.2210674186813004 -0.1459833230167357 0.9980427403803956 253 255 252
-0.0942434541570558 -0.0901529467040413 0.9036152172491986 128 113 118
-0.0029348309836832 -0.0029335856102443 0.8776927831525624 97 82 51
-0.1302163814604263 -0.0286709444902872 0.8977009278200763 248 254 250
-0.1082267006901877 -0.0738898603117690 0.9106663013678923 241 254 255
0.0036847434268157 0.0416372014302678 0.8734499516214620 57 52 46
-0.1711588780815074 -0.0898353727592307 0.9410946289552899 254 255 255
-0.0424891908750850 0.0913856457749155 0.8483168432469147 131 130 84
0.2212161730803367 0.0683316598249358 0.9712490072636033 168 190 203
0.1040102896802596 0.0195714761509217 0.9197583097230102 22 16 18
0.1041690860088564 0.0195737975458964 0.9199807252345504 27 25 30
0.2212161730803367 0.0683316598249358 0.9712490072636033 168 190 203
-0.0078805083879963 0.0989311055142773 0.8618267502101800 153 133 70
0.0032000517875946 0.0483171834924476 0.8719223120258078 98 95 80
-0.0694287089089355 0.0790051805831557 0.8597846394373992 108 121 129
-0.0761115312216000 0.0802796552535477 0.8595153347306562 115 117 114
-0.0761115312216000 0.0802796552535477 0.8595153347306562 115 117 114
-0.1106859489029585 -0.0045845820250816 0.9085750781871974 218 63 67
-0.0099138422974150 0.1040389735722180 0.8628375992782615 143 129 68
-0.1016429637749114 -0.0863795581740334 0.9080232983479045 245 255 255
-0.0703058269229720 0.0865267828903015 0.8601066804671694 40 24 27
-0.1267155552014827 -0.0345958490962391 0.8883734344303795 236 249 239
-0.1091465218208087 -0.0295058639930180 0.8903479111618017 253 255 243
0.0323605268901357 0.1133416564864703 0.8887307232201129 146 145 150
0.0373696573522738 0.1134190874241474 0.8938022204061279 136 132 131
-0.0542508917174402 0.0130264234626348 0.8514134383099103 14 21 0
-0.0293266741535468 0.0195693027076666 0.8559455409276949 178 177 95
0.0365527489372025 0.1178449922836826 0.8917897327398502 146 150 149
-0.0475840141216862 0.0533131286703087 0.8552546039205465 228 243 174
0.1600318753683941 0.0398573972809779 0.9420495489163977 177 196 203
-0.1575901129876645 0.1095932074405216 0.7484763596337941 105 80 60
-0.0114156607934311 0.0609648725156755 0.8614320986443156 137 127 91
-0.0259548656590162 0.0228262417131593 0.8565762866563339 163 158 94
-0.0025346165735750 0.0226521387829621 0.8726986809555120 159 148 82
-0.0294120434733689 0.0236183096931444 0.8555584401535038 186 189 122
-0.0616893869786725 0.1065257721888968 0.8584427945645067 12 10 15
-0.1319028018216249 -0.0482993381683317 0.9062800591560832 236 248 226
-0.1084278886051138 -0.0163459630594891 0.8929713396488036 255 255 255
-0.1163500172313640 -0.0198163656573991 0.8952025713631105 254 254 254
-0.1162533640095692 -0.0188988875371997 0.8934571008495662 254 254 255
-0.0270045507024592 0.0724922587981609 0.8514238075833525 154 150 79
-0.0121649366847946 0.0955813128966216 0.8592941992463380 147 132 77
-0.0727659158091589 0.0847692814515087 0.8600742502467471 106 117 123
-0.0039862301080656 0.1103210921807277 0.8658302239413057 134 124 71
-0.0319899517810895 0.1042273361030226 0.8507741659791553 134 124 63
0.0068616352292534 0.1094900100582013 0.8729233054815460 41 29 17
-0.0676462886563559 0.0925370819742962 0.8605233226912737 18 16 17
-0.0709368236877704 0.0931407074792839 0.8608958003086105 102 119 126
-0.0619368224075826 0.0970523659921270 0.8597191791596840 6 2 1
-0.0153913575396832 0.1151347215419653 0.8629834407311410 132 112 62
-0.0667122417463216 0.1044274895444775 0.8604608446818954 38 26 30
-0.0205385962351682 0.1141847111849990 0.8584407403323070 138 126 78
-0.0614486823530759 0.0992741428711521 0.8590616548422587 65 75 84
-0.0710434806061439 0.0971939768418873 0.8606610943197598 10 8 13
-0.0684672869158671 0.1010506382080173 0.8609139690219646 108 125 135
-0.0373644925364590 0.1173842664197362 0.8507932768397710 135 126 67
-0.0725493325224401 0.1014942196837448 0.8616453182348806 119 126 132
-0.0648211256942078 0.1135521266688801 0.8582685563301559 17 11 15
-0.0515666147591498 0.1333066022454968 0.8474583714571159 151 144 89
-0.1075759514474962 -0.0851870261673493 0.9088917870903899 58 42 53
0.2342273701161369 0.0485031862454931 0.9746322824373627 166 180 189
-0.2103251481096965 -0.1857177299285587 0.9901381945352993 251 255 254
-0.0267463089738357 0.0888886748077559 0.8523077228413770 139 130 61
-0.2267065091854799 -0.2024947586747568 1.0061022588015096 220 251 243
0.2278867279273854 0.1253056401735885 0.9868018177332840 101 77 39
-0.3249041175126895 -0.1961841603652743 1.0035362048538468 179 154 97
-0.1224068577041335 -0.1028523694353979 0.9228861089448087 209 216 232
-0.0609589173248856 -0.1025954455804142 0.9043453263944861 212 216 155
0.1480357061870795 0.0020309262757474 0.9499020364333407 191 214 232
-0.0402922366237769 -0.0114568993457312 0.8593823575574568 111 113 76
-0.1296213118995939 -0.1060341593143982 0.9246543702162345 80 50 50
0.0317515330801113 0.0877008752514119 0.8866827218183517 21 22 24
-0.2093628723231929 -0.1528232095279064 0.9821936174140077 252 255 255
-0.1814741960096388 -0.0984067357239594 0.9504875827517431 254 255 255
0.1379644429318685 0.1200417303930056 0.9515993500998288 137 123 120
0.2318446262030767 0.0361037229239620 0.9741702866358877 165 178 186
-0.1223838374468967 -0.0298113249665406 0.8935470405209199 249 255 248
-0.0563963860560447 0.0959890373125277 0.8571213832203713 23 18 22
-0.0074671205976672 0.1268824174922747 0.8724819686658027 123 114 59
-0.1971205738522559 -0.0981078887260065 0.9895041961555521 114 128 113
-0.1106725546826273 -0.0069572873418087 0.9017656202383685 250 255 251
-0.0432361807485648 0.1029752670804642 0.8479599933693674 69 72 63
-0.0350394071302141 0.1107027678185074 0.8499723383448610 29 8 0
-0.1778323761244838 -0.0883061908561151 0.9464923178811439 255 255 255
-0.1130073840965775 -0.0307863719170439 0.8844098320462481 191 210 188
-0.1130073840965775 -0.0307863719170439 0.8844098320462481 191 210 188
-0.1227432724869678 -0.0340447194787677 0.8871124637869282 225 241 212
-0.3310998160680871 -0.2682629008170925 0.9865361590253873 87 62 66
0.2017153303253016 0.0328804509776314 0.9641578053026899 38 52 61
0.0987458120074629 0.0142710745580633 0.9189707772548695 5 6 11
-0.0703353182666033 0.0729952994369403 0.8577272908425567 141 141 143
-0.2867113957138855 -0.0703042946303117 1.0015410945011058 255 253 31
0.1724352093563517 0.0804220721324193 0.9553527706344955 50 53 58
-0.0421481349147080 0.0405940887202147 0.8554217264923003 243 252 187
0.1201910402499169 0.1149785522617085 0.9392443153106050 152 164 180
0.2343534762095767 0.0576351682799239 0.9772890011262837 169 185 198
-0.1073161761191673 -0.1014252500312738 0.9126409127660013 60 62 77
-0.1071746079097667 -0.1014168006195682 0.9125385359254182 90 80 79
-0.1324036521403891 0.0268817952063933 0.8873844551199398 217 234 198
-0.1089172873184297 -0.1000447869157113 0.9127359682999814 246 254 255
-0.1140303564087215 -0.0146933609554247 0.8981340218362059 255 255 251
0.0035030154175762 0.0443380900417807 0.8738262979669106 157 157 119
-0.3132774332820215 -0.3163800945007449 0.9928135400962885 72 37 33
-0.1322820713066169 0.0288137742247806 0.8860001192333706 36 51 20
0.1788283255024766 -0.1022697319134233 1.0336570885577641 123 99 65
0.2151886827553416 0.0566767663750670 0.9680535962078622 187 209 230
0.2194230301838901 0.0575085417570449 0.9720438321524650 13 41 62
-0.2287916767303048 -0.2427935304132810 1.0367879400844693 135 175 167
-0.3054535730588861 -0.2967207706951039 0.9989518584176699 105 43 28
-0.0137051833014977 0.0464647479453080 0.8611497043174035 26 10 0
-0.0135679189444378 0.0464496062862687 0.8621669912117168 16 0 0
-0.2275703038995226 -0.2355727629685203 1.0292797121745605 156 188 173
0.0942930856919559 -0.2464702509731268 1.2040406217362207 138 22 22
-0.0925199277106469 -0.0708314999215360 0.8991492074060549 52 48 65
0.0178582231765418 -0.2121643510817114 1.0556612515094643 209 222 176
0.2613981463505332 0.0622481374127411 0.9915739776024157 70 43 32
-0.0598702819143315 -0.0836237337523248 0.8870261649150800 70 69 38
-0.1801031117731967 -0.1148108252528338 0.9541119599554706 53 69 58
-0.1316313937595321 -0.2394607990803614 1.0789393046654032 13 16 0
-0.0427724888916340 -0.0827911236719679 0.8927175740290038 28 27 0
-0.0378715358611728 -0.0821111100399707 0.8941222764211879 191 205 146
-0.1081378168143425 0.0394506515971339 0.8695533867856349 83 112 107
0.0884545481417894 -0.2017701457119586 1.0549839725630028 90 113 71
-0.1081378168143425 0.0394506515971339 0.8695533867856349 83 112 107
-0.2134903807376619 -0.2156665278793150 1.0096248236525840 234 255 240
-0.0407899657081743 -0.0816224739025817 0.8928822023682564 198 194 105
-0.2170734744468294 -0.2203503453301728 1.0135630161020681 235 250 227
-0.2170353981862532 -0.2203205464816591 1.0135675940471889 235 250 227
-0.1852401851158258 -0.2073526129026879 0.9901816799922931 103 110 68
-0.2171669000002908 -0.2262781877157196 1.0199374578384239 227 245 229
-0.0386202585895511 -0.0805166585473734 0.8929307955574929 10 12 1
-0.1778416742440975 -0.1114065527446789 0.9519775564812201 234 255 249
0.0882830733420873 -0.1990110477377823 1.0546395459539311 205 203 120
-0.0748866578938030 -0.0842861277226005 0.8956852675963730 85 110 91
0.0053554162904143 0.0548386011768340 0.8725407032501300 183 181 143
0.0053554162904143 0.0548386011768340 0.8725407032501300 183 181 143
0.0552285137361081 -0.2060132435637673 1.0526845052386458 204 214 162
-0.2284753572685708 0.1515095734711002 1.0238172198954953 250 215 196
-0.1580054462624087 -0.1034326490743089 0.9389033271158309 51 58 40
0.0376852039965346 -0.1978810328487772 1.0401558517694809 203 212 155
0.0219647156157512 -0.2062777034084949 1.0467598721547158 211 220 167
0.2143669635439161 0.0659221214252217 0.9710430200103390 15 34 49
-0.1497790841692092 -0.2079656787503786 1.0064245224070232 110 112 63
0.0671349638054374 -0.2042047824568208 1.0539702964247246 202 213 137
0.0053894477291803 0.0573897016348570 0.8728939855508895 183 190 157
-0.2277544038437573 -0.2098683027013878 1.0103399389130430 110 150 142
-0.0224655703361625 -0.0757469177013154 0.8966550629706730 191 190 100
-0.1618826198565758 -0.1025858662286461 0.9408105321485276 234 255 250
-0.0460301535339059 0.0552264773982641 0.8545556819279022 51 62 32
-0.2252493760112680 -0.2071553559680297 1.0073447580434078 243 255 245
-0.2163238606146350 -0.2140973837430457 1.0091151711102759 236 251 230
0.0084978225829594 0.0591358375598493 0.8715771087187874 193 191 152
-0.2193498124475557 -0.2142849789132104 1.0101093793059415 220 247 232
0.0039328141465042 0.0594488775469421 0.8705280296906290 31 27 18
0.0039624838772801 0.0594528848531003 0.8706885253381749 31 27 18
-0.0274639070728741 0.0589635223224367 0.8519027757921015 9 5 0
-0.2265931042541161 -0.2054596902715737 1.0076618346929516 140 173 166
0.0642276617750810 -0.1832563610941181 1.0290407998357984 208 217 160
0.0043115753190368 0.0611792805457830 0.8713548189997576 175 171 124
-0.0298499148199829 -0.0700596958331345 0.8895108593242306 207 209 159
0.0446759372388128 -0.1932692622071455 1.0337142713025280 207 216 159
-0.2312847576216509 -0.2164304514419372 1.0156692858015348 229 255 241
0.0164281074470278 -0.1936660897911772 1.0285423861833156 199 209 157
-0.0530465637881059 -0.0688592203414366 0.8808865235936191 47 39 0
-0.0531038735798550 -0.0688856701158679 0.8807408094957313 47 39 0
0.0328213671036938 -0.1790932657754854 1.0149107122691379 206 206 146
-0.1474693609335917 -0.1955570442102009 0.9904061805838416 201 212 156
-0.1474693609335917 -0.1955570442102009 0.9904061805838416 201 212 156
-0.0304185913913745 -0.0678648486634309 0.8884473145894970 189 189 119
0.0167907206437806 -0.1774858003209228 1.0078612383647656 197 211 152
0.1598434109282372 0.0739855487180706 0.9454107333376046 39 32 39
-0.0986711804488650 -0.2176902028169825 1.0606284087764577 192 201 138
-0.0944452918290505 -0.0765487982396273 0.9044729293544390 41 41 53
0.2141920230048015 0.0775873590859019 0.9713727707831316 2 14 26
-0.0874308378882475 -0.0748302601638348 0.9006574160889628 244 253 255
-0.1518941923208151 -0.1808127783764320 0.9743532338460706 229 238 175
-0.0336259604228193 -0.0649830842521367 0.8856026377499017 38 33 3
0.0094738104106575 0.0665268964829945 0.8712854904134685 179 177 129
-0.0500055418921098 -0.0643207413587521 0.8796796424352757 36 33 2
0.0075857318752500 0.0664799663073545 0.8712729369921473 43 32 14
-0.1370130840758621 -0.1782741199584814 0.9717920094219531 232 244 182
-0.2132400966760874 -0.2025729328288282 1.0011016792865461 206 237 229
-0.0936379494880746 -0.0748847148585338 0.9035373963821425 37 40 49
-0.0315542621929388 0.0631194880230800 0.8501641372388936 15 18 0
-0.0936379494880746 -0.0748847148585338 0.9035373963821425 37 40 49
-0.2015341844808387 -0.1897392073540283 0.9902771879283077 243 255 246
-0.1564492910444273 -0.1793771170216097 0.9736291702416322 239 255 190
-0.1246244384858424 -0.0010612379977526 0.9145999949422635 179 167 109
-0.0161662092047199 -0.0613842897785495 0.8907474480174556 190 193 122
-0.2292470509576776 -0.2061718616931978 1.0088561692412106 235 255 245
-0.1225176474343882 -0.0005049466886912 0.9149587280634014 188 173 116
-0.1179875128391985 0.0004135256357558 0.9142701525896707 188 183 127
0.2184136761379037 0.0814669770102784 0.9740718346047224 33 45 59
0.1596506299426625 0.0774744393189189 0.9453542910488523 3 0 2
-0.2061066486413811 -0.2007483923315592 0.9976982503391710 240 255 243
-0.0928782502566613 -0.0712520126239866 0.9004424743799528 106 110 137
-0.1084181005260277 0.0561023295519429 0.8682210571585366 195 218 202
0.0914251907835513 -0.1871161237614681 1.0452202953496186 178 180 96
0.0990396486844043 -0.1867179573704986 1.0467856202193104 182 167 112
-0.1029855006032524 -0.0742761502770635 0.9084896086616538 249 255 255
0.2245541522656223 0.0826408800019198 0.9745368519229859 0 3 13
-0.0153031464988205 -0.1915422831641864 1.0266755332447051 193 209 164
-0.0395928652569975 -0.0766897998716149 0.8936427070193471 183 188 121
0.0835998694908588 -0.1856604498576651 1.0405550944203668 16 20 0
-0.0650086393143994 -0.0602310056751065 0.8746770145065431 0 14 0
-0.1576954103394027 -0.1730859432807920 0.9688670338510507 238 248 188
-0.0899467276485335 -0.1141384685827804 0.9170498877531224 230 239 176
-0.2231048139731113 -0.2015278083115578 1.0044604361080087 239 255 248
-0.2088686562400844 -0.1975249300303537 0.9974531198628314 231 255 245
-0.1103584604671832 -0.0739460095040470 0.9113287613545791 119 122 139
-0.0507603753829943 -0.1713926286925155 1.0032363318542317 223 235 173
-0.0305585867334356 -0.0574556852142987 0.8830083481154473 204 205 111
0.2428919161339253 0.0868696878055036 0.9874888889212153 183 196 204
-0.1247313239529646 0.0029648509695038 0.9151672478892576 166 151 86
-0.1155511389137332 0.0044767593507573 0.9131937937654158 231 223 186
0.2201345534965382 0.0870806992832374 0.9752606564488352 137 144 162
-0.0015433643439451 -0.1563867448735398 0.9774249827715039 219 230 162
-0.1194754530498246 0.0072507724779715 0.9136044239606070 176 159 103
-0.1552013354578069 -0.1668885714593731 0.9643503576796043 243 250 198
-0.1284326829676317 -0.1612827827655216 0.9566393384756373 237 247 186
-0.0077758219173605 0.0742128093403960 0.8623547212835777 32 18 5
0.0061959886119464 0.0760122770327158 0.8705620124648153 144 140 105
0.0497697970277783 -0.1759024583213022 1.0168954626752267 86 96 72
-0.2033993823345129 -0.1914638577559608 0.9920447437064810 181 209 197
0.1788697389053732 0.0890706869737149 0.9633750407542736 117 122 125
-0.0721273258396941 -0.0545708225284094 0.8708764265853598 47 53 27
-0.0345041217777916 -0.0527168644947064 0.8794303709280463 26 32 0
-0.0344897831636299 -0.0527177113652068 0.8789817764786102 38 37 7
-0.1239875370342166 0.0074883278107296 0.9159305916682304 169 150 92
-0.0329725156941261 -0.0527070829840341 0.8795360707754756 214 224 153
-0.0329725156941261 -0.0527070829840341 0.8795360707754756 214 224 153
-0.1180967084708265 -0.1745723485190866 0.9698131617220095 48 77 46
0.0301088602916807 -0.1716270520105069 1.0050442655299201 208 221 168
-0.0244692473953763 -0.0512859904896809 0.8823144097260459 33 26 20
-0.1969209733920500 -0.1718036657676737 0.9802082675697147 242 255 248
-0.1655828793665563 -0.1811458672170893 0.9760652839063580 59 62 33
-0.1635173224297022 -0.1804582703759593 0.9752556284540483 242 247 193
-0.1634799236175711 -0.1804780168260085 0.9753160613827810 231 252 195
-0.0152767807975760 -0.0496797187214171 0.8853325605309128 200 198 123
-0.1263293924791551 0.0106652017544122 0.9156737286540994 164 154 103
-0.1156247521486104 -0.1736674607545112 0.9692696835382829 209 222 166
-0.0651638897170912 -0.0506354198744690 0.8692004652016123 224 234 165
0.0629238633042369 -0.1710978768838276 1.0171772329607702 109 116 82
-0.2203742125121924 -0.1935774550723719 1.0000087004483766 242 255 248
-0.1306687165667244 -0.1731079799322834 0.9665493573882398 48 75 42
-0.0608384125249806 -0.0473779140722573 0.8680133608424531 57 54 19
-0.0608240723760792 -0.0473677138534491 0.8680577502191824 57 54 19
0.1013159461150796 -0.1732083539773105 1.0368330589625463 93 95 55
-0.2157131163354954 -0.1755837236880187 0.9919368045809388 236 255 249
-0.1244187457885195 -0.1709275915030189 0.9652764875996050 221 231 160
0.2031932260814384 -0.0513323059752907 1.0079099281059996 156 156 158
-0.0618672412075407 -0.0458278189951804 0.8672530658122157 220 234 157
-0.1624502073520206 -0.1778528747262011 0.9735951540489000 246 255 199
-0.0112013960371398 0.0845320670504446 0.8610190961699171 24 11 0
-0.2130458821737502 -0.1707395757438979 0.9890555198491571 254 255 253
-0.0262190947078592 -0.0430405115931172 0.8774142728703884 188 194 134
0.0223499313119490 -0.1661175255611398 0.9955885814144828 192 201 158
-0.2260394632293246 -0.1754663613160492 1.0006895750403841 128 167 166
-0.0481226904470263 0.0767165520862482 0.8531668159896983 130 127 76
-0.0144318986140570 0.0847760431737015 0.8584273732317067 16 4 0
-0.1288572485864451 -0.1694890150092678 0.9638874675163419 236 248 182
0.0328908848263928 0.0876476859648084 0.8887395182421068 160 158 161
-0.0003029369047329 -0.1668263342327424 0.9909723716488252 226 238 190
-0.1469314554673486 0.2328778100326997 1.0546108502273279 128 51 45
-0.0152001994415887 0.0392679348665613 0.8607783534168806 165 149 90
-0.0270606156195486 -0.0417079059145340 0.8762932351808213 39 32 14
0.1600538244991046 0.0923913310520446 0.9477631813318027 34 34 36
-0.0118408415952669 0.0390828282179991 0.8654304273578484 150 137 84
0.0532541037570779 -0.1661955828616374 1.0080710971945470 190 191 133
-0.1396274297178440 0.0210278794272389 0.8900863157647410 216 229 203
-0.0243013203547904 -0.0407282579766422 0.8769002515284560 6 19 0
0.0080248933372112 0.0844987755825452 0.8719005960364921 134 126 89
-0.0079743549263523 -0.1656485964076216 0.9896341116000725 208 211 140
-0.1872509585925482 -0.1567769656215465 0.9700930990945772 242 255 255
0.0341787401653341 0.0901604553330543 0.8907655889595135 164 159 165
-0.2248414164247975 -0.1918495961507809 1.0028872660042318 142 175 166
-0.2201182867875070 -0.1665899085260889 0.9945596417316256 239 255 252
-0.1166537098230592 0.0279759587451905 0.8877539369181610 246 255 248
0.2218473630800292 0.1039969002936355 0.9811672487533565 160 179 193
-0.1414411523245973 -0.1430332239455366 0.9465107805617662 252 255 208
0.0378537195819495 0.0910094011135776 0.8934684278669445 19 15 14
-0.1799257164230920 -0.1513596836478227 0.9650174848379380 233 55 69
-0.1797946117682806 -0.1514098272385626 0.9647827795007275 183 85 98
-0.2226639512996435 -0.1904784831679984 1.0002975558616336 220 253 244
-0.1343139933337716 -0.1384772399135872 0.9420259632735762 245 255 207
-0.0589549239134861 -0.0372932929536091 0.8635846827999933 33 40 22
-0.0461009037409998 0.0836653407111242 0.8525475810432815 127 125 76
-0.1423969438895836 -0.1505872219841334 0.9513045922437317 247 255 204
-0.1436361326763255 -0.1397866112313152 0.9455557201030080 252 255 200
-0.1436715892100761 -0.1398185969634274 0.9455948959566016 245 255 215
0.1950735865881368 -0.0393885858387705 0.9927517596842291 17 28 46
-0.1897586337749250 -0.1611200649020707 0.9728342179131785 244 253 234
-0.1800242420847037 -0.1490053431649694 0.9642292912160337 255 223 108
0.0284476813061486 0.0904240293461089 0.8849144901810581 154 154 156
-0.0305104819170442 -0.0353351788440118 0.8723131705490664 42 42 0
-0.1897053946179300 -0.1611309438785410 0.9728867888321027 255 255 253
-0.0305104819170442 -0.0353351788440118 0.8723131705490664 42 42 0
-0.0085085952644246 0.0884745539387626 0.8614832031211620 138 127 81
-0.1786389914439611 -0.1455468194471464 0.9620208596383811 252 246 134
-0.0398066654470372 -0.1201733905785652 0.9255673493719442 214 215 155
-0.1463102502863430 -0.1490373190023153 0.9512700555762648 251 254 209
-0.0242486705142529 -0.0344620454423041 0.8750027921123084 204 207 160
-0.0242486705142529 -0.0344620454423041 0.8750027921123084 204 207 160
-0.1349580105483679 -0.1314788717508669 0.9382505433992615 246 254 203
-0.0041419173930560 -0.1607887298071385 0.9828428919410397 212 229 185
0.1493877255503772 -0.0347345772911240 0.9609808331257841 36 49 65
0.1168343057330047 -0.1258682689044448 1.0054156594506685 83 106 140
0.1168343057330047 -0.1258682689044448 1.0054156594506685 83 106 140
0.2160231160922222 0.0651748558294913 0.9703326440406350 183 205 218
-0.1082988121224987 0.0414135498147626 0.8681038506126874 255 254 255
0.0052096225815899 0.0915777321785420 0.8706922329330339 38 23 4
-0.1798742647580377 -0.1413541556211493 0.9613190349819632 255 222 143
-0.0449171524288909 0.0875174247821108 0.8511894894884980 17 15 0
-0.1333150846527035 -0.1648042367261749 0.9594008026258201 67 63 51
-0.1850559482459123 -0.1412743386585286 0.9639534902647350 255 250 185
-0.0442133338182083 -0.0323482441842617 0.8663606529854077 46 44 0
-0.2036994740616502 -0.1599457481479780 0.9797264507159109 249 255 255
-0.1825242598130658 -0.1389190730212291 0.9619037433868568 255 252 144
-0.1968640844362077 -0.1775830979715513 0.9822491287224198 242 255 255
-0.1489766780441770 -0.1661020014882019 0.9625362979467925 83 83 49
-0.0922352023099332 -0.1297522995195247 0.9305901843065288 203 195 132
0.1242653752723730 -0.1158413366763672 1.0037141994572107 167 167 169
-0.0573678187625139 -0.0300443768716435 0.8606624956199661 41 44 0
-0.1066631650997339 0.0448808288529611 0.8674967412537751 252 254 253
0.2447413562745898 0.1162891105707987 1.0040320336722997 102 90 68
-0.1511567911844132 -0.1617009976202278 0.9597966058013055 20 27 0
-0.0066237666042322 -0.0287797542497375 0.8812739026779828 153 147 99
-0.1512396447699942 -0.1619921935153653 0.9598163420101907 70 74 39
-0.0342956602716862 -0.1567107908378165 0.9804919914204876 220 229 150
-0.1981335363239919 -0.1515146981288258 0.9741311757883973 254 254 254
-0.0649393605788918 -0.0287468348191269 0.8577640640843439 213 218 151
0.2413517533073499 0.1187251826877998 1.0023465367857352 160 164 175
-0.0630190419644903 -0.1018257379815236 0.9030193254950317 210 209 129
0.1262807397449309 -0.1296321733149035 1.0151745455291241 167 171 170
-0.0435632280385267 -0.0276317282240937 0.8646851448848595 206 210 126
-0.0324102046385207 -0.1168199185840153 0.9243480757466860 197 210 167
-0.2166313339637329 -0.1777252078269253 0.9934654996134389 231 255 245
0.1462947322822322 -0.0268962617144231 0.9570060191005859 30 38 59
-0.1979881318529230 -0.1478147411838178 0.9730593236136592 61 81 72
-0.1676362680942517 -0.2042781776059589 1.0879657835255532 246 255 206
-0.0055353803194602 0.1031679754557197 0.8653706874827582 11 2 0
-0.0552577668072308 -0.0257831875979924 0.8596921066107513 69 63 11
0.2154901933720099 0.0766998122497610 0.9688136781903012 169 186 202
-0.2060572886063225 -0.1363687702524731 0.9783181066131305 252 255 255
-0.2060572886063225 -0.1363687702524731 0.9783181066131305 252 255 255
-0.0132754935738349 0.0646508507752887 0.8594423335743548 150 138 78
-0.2146324899543430 -0.1735424348466787 0.9908008485753060 229 252 244
-0.1520562497190187 -0.1550396455071217 0.9560879123244305 47 90 45
-0.0441640226948938 -0.0241837302818944 0.8627759208893196 209 214 147
-0.1520771784542040 -0.1550081050630446 0.9560837458395621 47 90 45
-0.0088034007822021 0.0644745824607041 0.8644247588392409 150 134 82
-0.1074139719294171 -0.1056816905008109 0.9146847907829507 65 67 90
-0.1074139719294171 -0.1056816905008109 0.9146847907829507 65 67 90
-0.1371898954095464 -0.1272117912835840 0.9363128163211570 246 255 200
-0.1804288958807964 -0.0548487872762745 0.9392242290953388 134 123 129
-0.1923041732871491 -0.1291354516319105 0.9650194367195007 248 255 255
-0.0298362160822889 0.1050001842725668 0.8512232921300679 160 146 85
-0.1111095654030196 -0.1057674069982392 0.9155105757672449 247 255 255
-0.1112836288925993 -0.1058930726390868 0.9162356851681077 247 255 255
-0.1601191067112960 -0.0515508808499983 0.9362356627265092 89 119 109
0.0707486991003244 -0.0984812986936622 0.9561589241308037 6 25 39
-0.1601191067112960 -0.0515508808499983 0.9362356627265092 89 119 109
0.1477661875693075 -0.0207355854234222 0.9551853255643410 34 57 73
-0.1837443439824687 -0.0539062040625784 0.9396302082118291 194 198 201
0.0039359312220824 0.1066667435564996 0.8705474870222548 149 137 89
0.1657922605125467 -0.1062675405580605 1.0268581292618160 40 32 13
-0.1868891154576947 -0.1589481055146270 0.9705014849749785 45 58 38
-0.0598165822144565 0.1019821494228125 0.8563383625263387 127 146 160
-0.1884318395765352 -0.1592609004696100 0.9716161321577419 234 253 247
-0.1442169541276031 -0.1472778626000263 0.9496383135569940 80 115 75
-0.0308543375326874 0.1064873675918840 0.8502717837529008 25 14 0
0.0305265034952650 0.1115048745698619 0.8890638401790451 32 31 36
-0.1404964342370527 -0.1457019732243107 0.9476809989180387 241 254 210
0.1623954147970375 -0.0168497630814206 0.9604151337141391 23 52 68
-0.1780818704099273 -0.0492600253447681 0.9372580764895323 206 220 231
-0.1700486338422578 -0.1146844464203978 0.9491889018298831 242 255 253
