ply
format ascii 1.0
element vertex 699
property double x
property double y
property double z
property uchar red
property uchar green
property uchar blue
end_header
-0.0701622949652989 0.2217746039136342 1.0962468511402919 179 140 99
-0.1072251966749429 -0.3225912874905289 1.2796124032154448 122 23 0
-0.2141430418416165 0.2387824232258236 0.8251551121392030 198 48 33
-0.1736565359486635 0.2701512670844778 0.9218257011225890 95 24 28
-0.1968196991984064 0.2099329211072941 0.7954099106625820 188 44 53
-0.2292503791746741 0.1214790271346051 0.8603045759004020 152 134 112
-0.2183208254449584 0.0835756637160403 1.1858920166000877 226 212 185
-0.1733404197957757 0.0913092474900142 1.2328991466228980 163 164 133
-0.1078913399535350 0.1017047740316760 1.2754751723852613 167 132 110
-0.2037292304281057 0.2039015964337532 0.7863266701378709 232 90 112
-0.1951163286537186 0.2633593314403641 0.9271230983462053 213 146 129
-0.2267000293655591 0.0789656853784262 1.1772382830562766 171 123 113
-0.2611743102626787 0.0451118284209187 1.0730567172855805 162 85 57
-0.1424087143865840 0.1665996670808125 0.7542424864314022 201 95 47
-0.3227591977598737 -0.2775511185420292 1.1914476454413989 25 16 17
-0.0323797602662476 0.0861310861537238 1.3318577831266365 144 88 73
-0.0277662339679244 0.1659456423509836 1.0182180605540583 173 131 106
-0.2598092337390979 0.0398955351896008 1.0690012917763174 157 41 41
-0.2246090890918387 0.1792231548378352 0.7985555637251701 238 94 119
-0.1769291856764133 0.2593775670152499 0.9655904457899009 135 151 164
-0.1855679680025807 0.2129527518966418 1.0622124755677131 211 224 206
-0.1555342952788085 0.0990795238417581 1.2417982138079882 158 96 81
-0.1499017732669521 0.2597231506587450 0.9848742048195365 185 186 152
-0.2296824464348619 0.0733378151856678 1.1798252861445118 209 161 141
0.1265131216993670 0.2331033767073401 0.9836612045044085 17 18 22
-0.0879742189945873 0.2506890532151911 1.0133896445465138 185 196 162
-0.1363111004225632 0.0834994330033451 1.2706704003076565 148 46 44
-0.1003354985587511 0.2121991035050575 1.1023746527711953 170 161 128
-0.1888580971424036 0.0905707047828489 1.2171388095477156 143 135 122
-0.2262397326428765 0.0817564766323803 1.1750815550940061 172 133 128
-0.2227050706582003 0.1529183749989485 0.9554000718345280 164 93 109
-0.0750477200088821 0.2514212355082942 1.0229205754385555 181 179 131
-0.0748747196921335 0.2509915788137365 1.0224885191860194 148 131 77
-0.2057920658346416 0.2309280351917739 0.9615224028894899 192 76 89
-0.1675879875201366 0.0792533906437210 1.2510841383333156 27 1 0
-0.1544566931700190 0.2462918631698538 1.0172030439761324 214 151 136
-0.2451708740859640 0.1083302384474358 0.8827680127139932 229 249 255
-0.2512528702690504 0.1185793461257051 0.9026131317011339 172 41 57
0.1388580305413790 0.2332780670950191 1.0713598858923847 50 47 12
-0.2236665352706402 0.0670555016861475 1.1970229069359883 231 213 191
-0.1352007044014766 0.0757504046240343 1.2779592688322494 124 30 31
-0.2056700665049219 0.1843606838508069 0.8873809258014319 188 42 65
-0.1647869427556648 0.2448734053188227 1.0175781887141184 192 176 150
-0.0808928649941774 0.2483471658551144 1.0407023293177289 119 105 60
-0.1637081965540827 0.2017231085519879 1.0996737911392258 202 131 103
-0.2012814322705908 0.1874909849756410 1.0621351198884013 153 159 145
-0.2301293141366668 0.1410487212177680 0.9714068183003837 185 24 39
-0.2079476747359995 0.1785705207889360 1.0541679990356696 126 137 121
-0.2079476747359995 0.1785705207889360 1.0541679990356696 151 164 172
-0.1180245008297025 0.0719037834723852 1.2939825742473969 145 97 87
-0.2245684321300603 0.1493749135939546 0.9958043246051194 184 141 132
-0.1181349704024710 0.0719641517989890 1.2940465307740361 191 146 123
-0.0766923307330410 0.1986673984811838 1.1466008003588077 68 31 39
-0.0828498231658520 0.1940481934786497 1.1435224718276349 113 55 53
0.0834774079200569 0.2495921764725259 1.1375292331568922 168 153 96
-0.2303114697384734 0.1424042262069687 0.9892894176197924 199 106 124
-0.2365225218963140 0.1329942167734341 0.9722004414765871 83 19 0
-0.1701968511802773 0.2404422961851559 1.0247676606800282 191 156 136
-0.2193068083167103 0.0630619500001119 0.8569678361733940 76 45 50
-0.2259044374049178 0.2052762427751876 0.9485828439532408 174 86 108
-0.2390047305774944 0.1288651903741684 0.9718279275559696 163 75 53
-0.0654676351330996 0.1965026067355932 1.1731115643997874 162 102 74
-0.1983433553960886 0.1796397440306012 1.0871602737191903 220 201 145
-0.2231083006625130 0.2029161735614876 0.9549560907868997 221 186 94
-0.0679401028808664 0.1945246586998933 1.1707804906056616 149 102 72
-0.2506257171580500 0.0959477155209358 0.9129515596877426 112 18 18
-0.1878967232585523 0.1821519800268399 1.1016152969840587 225 158 139
-0.2299956587655142 0.0379279074235004 1.1908275123209586 255 255 241
-0.2299956587655142 0.0379279074235004 1.1908275123209586 255 250 231
-0.1046691967339499 0.0585341593598871 1.3173531220016399 125 27 24
0.1500547503043919 0.2555420393419679 1.1601718006366384 157 132 50
-0.1917609500423312 0.1779714242010404 1.1004365409292645 232 173 143
-0.2078594273939992 0.0542257194799559 1.2385998792485493 131 44 25
-0.1878917288304346 0.1764977404359897 1.1086865546379341 174 103 85
-0.1269532211844562 0.2436674109999306 1.0335185238545892 228 190 167
0.1481304879160014 0.2545240374369330 1.1576785835000662 55 32 0
-0.1715331684389825 0.1788556187300908 1.1268188816488236 181 124 117
-0.1798141454560965 0.1752750322603393 1.1217105777260057 61 16 21
0.0830695565422741 0.2479639895682378 1.1395650201461609 58 43 40
-0.2360689754068298 0.1384233186026380 0.8446077662265323 126 74 60
-0.2110367523129993 0.0467968496762063 1.2423316068948616 162 89 48
-0.1942106619181689 0.1642195099818837 1.1137568755249652 179 100 87
-0.2250155348894443 0.0280490712272773 1.2112320190169419 215 175 139
0.0142280459129117 0.2280596245010242 1.1463149770250576 35 29 31
-0.0652097885140597 0.1761275989283059 1.2095970020795823 191 128 95
-0.1903928682830820 0.2118869901693325 1.0535926069229919 158 147 143
-0.1854413254347677 0.1627798820715448 1.1290833510344835 203 179 131
-0.1854401717046259 0.1628035199326290 1.1291737943991100 203 179 131
-0.1772487510566656 0.2249537758897991 1.0502705609393641 67 35 12
-0.0767261098468295 0.0459036433009810 1.3423665326978975 111 51 41
-0.1660356523195487 0.2264236053989366 1.0553584671057736 63 27 11
0.0913456912540306 0.2356300440649642 1.2039069142230736 50 33 39
-0.2655017714500322 -0.0289920500499671 1.1108666502302207 180 52 53
-0.0589905497018399 0.2301119060062184 1.0933085565591714 190 173 127
-0.0592434041272657 0.2302231817505040 1.0964489847426813 202 145 102
-0.2952637023303045 -0.0370970702222918 1.0785672175086689 140 47 42
-0.1548124982136429 0.1629067571651010 1.1656921064944936 165 122 80
0.1081782115199671 0.2338708842209843 1.2244157311016775 99 71 70
-0.1655334626523103 0.0387313287860792 1.2855310772789006 145 75 50
-0.2349927866311932 0.0905836484208899 1.0008858301275980 180 44 64
-0.2673902537466515 -0.0172218919227370 1.1084296309281654 144 59 18
-0.0655618791564223 0.0308862101886635 1.3569749906485109 91 32 28
-0.2217444886378539 0.0223247797835608 1.2427388074460561 255 253 241
-0.2217444886378539 0.0223247797835608 1.2427388074460561 255 253 241
-0.3022358637771340 -0.0583196201763761 1.0687702099978786 161 52 32
-0.2219577289994799 0.1473558621000869 0.9597926993828420 169 128 122
-0.2003987278223342 0.1450220445925562 1.1283794931415920 216 218 171
-0.1999392830993724 0.1452669317193368 1.1294517558290509 170 107 89
-0.2131716785270190 0.1640116921357762 1.0112634923220327 203 130 139
-0.1764714432854813 0.1510906270623164 1.1568061940202539 194 171 130
-0.1948876299414537 0.1917916585047461 1.0791562047831267 215 220 197
-0.1752267847036962 0.0285954817011429 1.2830281532908332 123 55 34
-0.2308788717573346 0.0067090771808554 1.2424298096086750 237 236 215
-0.2941483776320661 -0.0359444078870519 1.0778196257379131 214 196 68
-0.2136623274455813 0.1335619654570746 1.1209189022525405 236 221 188
-0.1624896939218829 0.0246226826679082 1.2966396400343947 124 53 33
-0.2134760731742008 0.1334781932052165 1.1211121773236750 237 226 196
-0.2136623274455813 0.1335619654570746 1.1209189022525405 234 211 179
-0.1338410423653678 0.1520086747365618 1.1975600565859961 125 58 39
-0.2219634416962773 0.1279831094776268 1.1115933953872559 168 122 133
-0.2087952855663898 0.1337349577686841 1.1301637758771688 232 223 180
-0.1817938879013842 0.1417748728054130 1.1613762753945105 179 130 97
-0.2550972742321218 -0.0281768378856837 1.1995244019112581 218 234 233
-0.2412058466064334 -0.0078749594266482 1.1903688420461138 169 149 148
-0.1926668422341365 0.1371122362012512 1.1518221192897709 181 142 99
-0.2386589127672260 0.1381865842437119 1.0073854471260564 149 67 45
-0.2215323239877132 0.0181331676588730 1.2514627601938186 155 143 95
-0.1834066570767896 0.1393518637937139 1.1615926567797557 168 115 83
-0.2506810385045848 0.0945376549758852 1.0449334606223752 225 58 78
-0.1569864710256371 0.2157422702405724 1.0796730203163327 169 164 144
-0.2262406845262766 0.1222930361880482 1.1090090497699350 126 83 102
-0.2289704960478746 0.0106585082125219 1.2406991613447989 186 175 145
-0.2438300011819559 0.1316323379734098 1.0150733010383248 172 67 64
-0.1834321144556573 0.1377847951762579 1.1637710406669235 205 198 154
-0.2417973370594531 -0.0090065155961369 1.2030131427868971 202 170 149
-0.1642695012411827 0.1417734160642596 1.1833276785099995 161 117 68
-0.2424658389061799 0.0703579342411606 1.0172846791132875 182 46 60
-0.2080501825213609 0.0092129793477321 1.2673149437714915 69 36 21
-0.2432368433666828 -0.0089688353254857 1.2219802723168627 241 208 203
-0.2242034807863829 -0.0004621287488013 1.2589100854884501 125 93 46
-0.2404636928281942 -0.0071084850000631 1.2344067945312960 246 229 203
-0.1524859938048316 0.1350455913358594 1.2022164019720580 175 154 101
-0.2327255156927620 0.1069905266726966 1.1175435528900453 108 92 92
-0.2287426858087337 0.0318258142271944 0.9898909519044350 170 75 69
-0.3018822777596153 -0.0934231405467239 1.0614065966917510 141 57 20
0.0273340670422889 0.1268572725725145 1.3182196827352672 156 86 52
-0.2512539366968336 -0.0226737380007220 1.2295363574798091 131 111 123
-0.2486505117726538 -0.0220805495253139 1.2378213220598109 146 109 127
-0.2296935829860032 0.1045178984529425 1.1284775706118222 85 71 97
-0.0585430820362953 0.1535404932008982 1.2508916006421937 127 39 29
-0.2517090756995113 0.0528773545450035 1.0346898685638819 155 49 51
-0.2117050817688984 0.1315215921870325 1.1279273907463634 167 119 105
-0.2631542115610749 -0.0381078116200158 1.2080405823313733 127 130 123
-0.1881221670959922 0.1166657158492946 1.1857238298017754 188 191 148
-0.3344510734092755 -0.0841985050382194 1.0694827948060159 159 87 88
-0.2630820780423623 -0.0387700382685407 1.2131222359232370 184 200 197
-0.2558883622634671 0.0611270822599043 1.0580043744859466 153 51 46
-0.2802986945164694 -0.0668075312270489 1.2225217136778230 152 164 164
-0.2900868769379110 -0.0699843590648339 1.1720996170201337 193 55 70
-0.2856007451109722 -0.0751756369082285 1.2054120030589344 207 127 156
-0.2829324966120132 -0.0703377540074011 1.2175148755130907 252 213 216
-0.2833817790833509 -0.0669971152917154 1.2211153930165310 202 123 145
-0.2748344472910904 -0.0584761058799194 1.2202897849048557 140 155 158
-0.2265879654924793 -0.0089186317422173 0.9768490442386829 149 28 0
-0.2783217248556311 -0.0626821114696172 1.2180449672821592 95 106 126
-0.1051400240090195 0.1118395933710180 1.2677325387489082 174 111 76
-0.1563188429779368 0.2014367797209947 1.1063307671220433 174 108 76
-0.1795041313284058 0.1070411935979954 1.2089832348876659 113 115 78
-0.2738050288918842 -0.0671965521157223 1.2351056152008686 207 213 203
-0.2753203634908273 -0.0614986583242153 1.2250956382872840 149 161 159
-0.2539983250335186 -0.0571903211455981 1.2528452957250082 169 152 108
-0.2773909979370105 -0.0638017229994043 1.2232208877677047 165 171 169
-0.1280092840976487 0.1309034178027304 1.2316251288960147 187 188 174
-0.2545140058491459 0.0367207121759981 1.0453695847703330 174 108 56
-0.2731958296455209 -0.0678081035915423 1.2373835260064772 193 77 100
-0.2862700385804731 -0.0710475390839320 1.2130926524097485 229 76 104
-0.2332438951417156 0.0991338297433383 1.1269656767184679 155 142 152
-0.2332866635758138 0.0993452418593994 1.1270285917583325 155 142 152
-0.1068718397776508 0.1034756682423972 1.2740030115609042 141 49 38
-0.2880877236807309 -0.0789016817932396 1.2064913567467095 172 62 73
-0.1890144674352978 0.1101985436731699 1.1924707629620739 133 130 85
-0.2062715139941922 0.0909835251129855 1.1938394941259260 175 173 98
-0.3433394732499430 -0.1047812755876671 1.1466953363118411 200 77 95
-0.2364244749651639 0.0131669683051830 1.0053410441442248 255 253 110
-0.1850654509520995 0.0953299602235816 1.2157393723524121 139 137 112
-0.3334219433323097 -0.0989170687341108 1.1551268176398661 205 69 93
0.0200387902423662 -0.2270266078606236 1.3687704381170451 139 130 125
-0.3650519464644448 -0.1747187019094537 1.0137642375082521 194 179 176
0.0104413947511342 -0.2325601480008336 1.3663856795422882 32 17 12
-0.2346416131406069 0.1414558589249214 1.0041505001116087 255 250 154
0.0121808603963608 -0.2292952638856264 1.3673458059389627 54 35 29
-0.2848608135316461 -0.1004387473139053 1.2353863652310095 38 33 39
-0.3498665987902329 -0.1625838664197099 1.1714830517045045 69 50 54
-0.0091243354628318 -0.2380597441186180 1.3555316658791077 34 18 19
-0.3372308072795612 -0.1413196731207437 1.1811948858253354 179 160 104
-0.1910506500792828 0.1312612964255280 1.1623093282391801 188 153 125
-0.2365608968607878 -0.0012496279753755 1.2109013846013847 238 228 201
-0.3671226772272598 -0.1891065968902629 1.1614331622546834 100 84 87
-0.1843050994277393 0.0149098747636189 1.2838205755292260 120 84 62
-0.1566948494077106 0.1707430429280654 1.1525609246737378 123 52 20
-0.1154151096271165 0.2507404505901614 0.9993466960855971 183 182 151
-0.2527822316460179 -0.0277993392166170 1.2347884648309333 208 208 172
-0.1704871512232273 0.2354804186687227 1.0359134929889031 164 165 134
-0.3641271121296514 -0.1163646117182131 1.1078826241438993 167 37 37
-0.2294381074959982 0.1417433141930383 0.9669654556456391 197 71 85
-0.3304528814375152 -0.2056675620882382 1.1991955833302668 177 152 156
-0.2615437393287112 -0.0361252491417701 1.2090966498426539 221 232 228
-0.2455970092909660 0.1350399139824148 0.8249928097116731 129 120 91
-0.1544682383874878 0.1273059212220591 1.2084435216597393 92 43 38
-0.2216304313965237 0.1422628827447260 0.8541121121492407 173 149 105
-0.3401428651551843 -0.1399636458974585 1.1776106697921320 190 180 127
-0.1590632257542228 0.0934749783386915 1.2436232756539316 47 25 28
-0.2353758199630175 0.1690420850715497 0.8221205136918222 212 49 76
-0.2188044316447857 0.1551445619063248 0.9798329926645769 119 46 37
0.1765200962287572 0.2426794363304539 1.1202059375233855 163 147 60
-0.2274244020999132 -0.0293396543974567 0.9661875955289330 240 231 38
-0.1412796509507108 0.1492284757697192 0.7510717428731810 43 24 10
-0.2465094813658415 0.1068618917668769 0.8507098126366418 237 255 255
-0.2697790485835602 -0.0621444187361852 1.2385767906110516 189 185 176
-0.2272976623167992 0.1264206891087902 0.7177967638953500 71 54 62
-0.2559350003257916 -0.0018727823626037 1.0709274421121948 98 3 0
0.2646883175576972 0.2156214212736117 1.0665969739547805 30 23 30
0.0125942566066713 0.2241520420309245 1.1514702233679897 146 84 61
-0.2172805867497636 0.0859652008127533 1.1833245792671749 170 119 90
-0.2272634903280440 0.0797691800864276 1.1743191897009877 219 182 174
-0.2848220301828638 -0.0387486176041945 1.0281234242554378 169 102 47
-0.1651328924357262 0.2671581728184321 0.9534421699991334 183 189 161
-0.1394282264590418 0.2672194261764123 0.9662592425347031 162 162 134
-0.2360321853100711 0.0769285109001041 1.0052148730151125 192 63 81
-0.1463932641658200 0.2602260870416470 0.8863028604550596 159 159 171
-0.2416577240481575 0.0864844578776288 1.0166809346752268 219 64 98
-0.3135201130289520 -0.0641892405335864 1.0326443874258737 197 130 111
-0.1708876188296272 0.2701831104785372 0.8950453527848712 175 109 74
-0.2293526304131499 0.0271752664403943 1.1965508377821963 228 204 180
-0.1397728799156268 0.2594170332097195 0.9831095068550277 171 168 135
-0.1398444107947101 0.2594746406943962 0.9830977819077612 171 168 135
-0.2513938516855639 -0.0459093601898530 1.1491811574615691 189 143 169
-0.1718002308989643 0.1501709253193385 1.1640157196660197 121 62 46
-0.2252091490969088 0.0155702581085364 1.2238225132956713 221 162 130
-0.1547924818494605 0.2568869431110869 0.9870691963613987 183 172 144
-0.2014359216687439 0.2425842337627090 0.9441694438308043 205 51 61
0.0835226216209324 0.2503013027768763 1.1185352759148750 32 16 1
-0.2780463561889522 -0.0581824027384041 1.1596532341363093 217 80 100
-0.0671240417166811 0.2511850264087014 1.0281796124800697 57 42 35
-0.2729879100899799 -0.0553968934771986 1.2214072011386627 97 89 102
-0.2246088369521639 0.0304936156526428 0.9576370279656670 206 137 130
0.0852815384939879 0.2488781415575889 1.1217542553786508 22 20 8
-0.1267896944915266 0.1272837192249309 1.2357770626724003 200 190 178
-0.2446043160676400 0.1114508898340442 1.0299193904064237 180 35 32
-0.2431711036775720 -0.0330153197882313 1.0047623833093264 160 41 7
-0.3476694526955720 -0.1385911518028910 1.1646217598166912 204 176 139
-0.1819112761777471 0.2496257594397040 0.9913503986011847 194 183 153
-0.0795707657510820 0.2489003679830485 1.0525905290011821 71 63 60
-0.1670720033611230 0.0710849777298305 1.2575306506467374 88 54 45
-0.1323713934947200 0.2437343172704216 1.0249273346339716 153 27 38
-0.2488260398632601 0.1035863142603286 1.0364392533216513 202 27 42
-0.1322067168018395 0.2438408791179588 1.0249219452399774 153 27 38
0.1003921497486699 0.2513966928838371 1.1715807044926738 171 157 144
-0.2459251218297364 0.0768649358821075 1.0221171982571833 213 74 95
0.0797396035490169 0.2502663275307039 1.1632807383103214 45 33 43
-0.2585425373864560 0.1286865167573581 0.8351004653212080 23 8 13
-0.1881287180624998 0.2408217120195945 1.0034933605264709 81 64 72
0.0840949364855789 0.2436200978633864 1.1739158107172154 50 34 35
0.0043459828014375 0.2348833701790531 1.1329789940849568 137 76 55
-0.0893398293769907 0.2077854272129737 1.1091880140007910 181 137 100
-0.1424706649928737 0.2165100187811521 1.0862642213689950 140 125 102
-0.1618766817148130 0.0421459046785092 0.8413073436786128 50 0 3
0.5122603120160221 -0.0968616785923123 1.1228788405248518 131 68 53
-0.0746804942766008 0.2140187303055549 1.1082898412217248 175 141 114
-0.2423820787219533 0.2104412686466447 0.9952651173022719 172 119 127
-0.2217427606979478 0.1540727978865437 0.9918253881366371 127 28 5
0.0153147115947936 0.2127531538149909 1.1738400103276454 33 14 10
-0.3837487429608097 -0.1406039727546708 1.0939856304470881 208 113 133
-0.2405423117931902 0.1264840523741525 0.9195370967320320 158 21 39
-0.1092664835429030 0.2135042318839467 1.1005506538319356 176 166 139
-0.1595946853096004 0.2093802204115456 1.0684257809242657 186 181 151
-0.0507993256520087 0.2083932172957736 1.1666192373176816 149 93 66
-0.0848243528487326 0.0942789128291685 1.2962703457044862 141 119 72
-0.0341645080104369 0.2395421838585988 0.9386626506805223 33 34 28
-0.2398941540648096 0.1578680806968804 0.8870125045037563 227 224 207
-0.2466499997006376 0.1143063773923650 0.9860607963605950 248 232 93
0.2578901812434514 0.2156078741928592 1.0556177519931702 21 19 20
-0.1711250720126753 0.2380872178008043 1.0297220272977039 208 141 133
-0.2502005023147586 0.0955813061232030 1.0376638025347751 216 59 78
-0.2141029542136173 0.1718899501579551 0.9732792970594744 244 223 104
-0.0828193750946980 0.2554370505043233 0.9836220350652628 28 16 0
-0.0828309183168966 0.2552524644271444 0.9834935698300851 28 16 0
0.1824374351785918 0.2265354048853790 1.0978392517551805 29 18 0
-0.1669319477207108 0.0633111756959697 1.2656895579971652 148 117 99
-0.2321187793514682 0.1412122869071960 0.9892055361129244 224 164 76
-0.2102058008801807 0.1796885129813479 0.8779737786912903 193 169 123
-0.2431028042022987 0.1223162257064053 1.0138809352471951 255 237 135
-0.2293118758060647 0.0029800668306421 1.2515058681996309 175 168 124
-0.2827481477208248 -0.0704230144211508 1.2173896710767060 252 213 216
-0.1234585528482305 0.2182290020029710 1.0888274149356361 86 53 44
-0.1389846926215129 0.2193957086539971 1.0827555669180671 61 31 33
-0.0414755838250333 0.2188268565249355 1.1526008985276737 115 85 49
-0.1449299177380862 0.2131075506117718 1.0916091052866617 94 55 48
-0.2508291282869149 0.0547730067396102 1.1417578179825920 86 88 103
-0.2142632540976101 0.1654603835868972 0.9738039677283118 255 250 159
-0.1530674078432275 0.2185580211108921 1.0771708365841728 37 23 23
-0.0670396034765929 0.2405864349443634 0.8753773558548228 135 118 92
-0.1531451019159667 0.2185794311106297 1.0772216729771036 37 23 23
-0.0663731141732515 0.2314142069967321 0.9120220552365245 177 182 142
-0.1328393972837424 0.2162302040525950 1.0897266838383386 161 160 130
-0.1674473693983839 0.2173881942095277 1.0702388342684861 92 46 46
-0.1478519484208653 0.2166090681867189 1.0841841803490093 163 163 135
-0.1271262389087470 0.2458721325085696 1.0174359090912091 192 179 147
-0.1054757956183742 0.2520135647398480 1.0015966034853465 145 137 98
-0.2609826232588262 -0.0050709631127567 1.0655636251663221 208 14 38
-0.1481736280573311 0.2550989551745592 0.9916827891009452 143 39 36
-0.1333690051538540 0.2672391227120552 0.9641204289268055 164 149 130
-0.1367115355375044 0.2402529047571888 1.0418255753129626 157 24 25
-0.1333690051538540 0.2672391227120552 0.9641204289268055 164 149 130
-0.1961781975199268 0.1944725784126038 0.8639645712785832 248 174 201
-0.0197357906980859 0.2297421584329734 1.1133790618737622 175 65 64
-0.3454151048095218 -0.1499542441798751 1.1751034538137375 133 56 72
-0.1442045174180212 0.2627181909000955 0.9789775328094784 144 128 103
-0.3560626444636932 -0.1620731835336098 1.1630263885719849 95 60 84
-0.2616094744075067 0.0475612800382676 1.0723657324616216 254 254 164
-0.2616878766694399 0.0310131219474818 1.0830766672493009 255 227 107
-0.2027225583660311 0.2621409718788300 0.9089503000863715 254 118 140
-0.1739242100494759 0.1645043109445154 1.1392160408979906 161 154 100
0.1417948879157294 0.2552094933258697 1.1643755958666768 179 161 27
-0.1461509153526114 0.2314747028967580 1.0586628048892934 142 112 86
-0.1579816453837132 0.1433709666938780 1.1863081867416270 151 128 76
-0.2045811242582931 0.1874739104478115 0.8769737008384199 218 22 44
-0.2799430814694998 -0.0174995271160623 1.0667898992586755 173 22 37
-0.2163838163667221 0.1829386192838341 0.8970902723021978 235 248 238
-0.2969993703760856 -0.0381413477272699 1.0579062180281817 219 214 1
-0.1112921396128730 0.2246346358008899 1.0765544094022095 141 128 93
-0.2127786855283695 0.1127563417400366 1.1551652840360966 200 201 167
-0.0870768428422358 0.2434785899028701 1.0578506256631881 134 127 83
-0.1521671594575697 0.2488101937088531 1.0119221574967650 142 16 19
-0.1043155547004040 0.2487734599036399 0.8555390151934252 109 82 53
-0.3517389326980271 -0.1567567319152288 1.1674330840982015 203 178 148
0.1225338232619419 0.2324310786773549 0.9774640744807581 18 13 10
0.1053366683084506 0.2132257289618987 0.9871131374305315 141 113 99
-0.1112482813861524 0.2437739577565398 1.0428494678746736 134 139 109
-0.2182117037786503 0.1331418619470037 1.1117648539419029 168 139 131
-0.2182117037786503 0.1331418619470037 1.1117648539419029 168 139 131
-0.2379955705516938 -0.0112624666321766 1.0048903141960548 175 90 61
-0.1254332284679233 0.2437701473809278 1.0327179956280894 150 40 41
0.0954712187890573 0.2080659384171323 0.9845626739522253 79 46 37
-0.2590900027954906 0.1196736535387826 0.8252183950465646 232 255 255
0.1095495593874199 0.2053540987630804 0.9942298838895393 140 112 100
-0.1495854808989188 0.2465613965347031 1.0169884441645121 144 20 30
-0.2075462208225277 0.1352826907309856 1.1297947038443437 223 210 168
-0.1603604637672828 0.2484018452927153 1.0105382120268622 163 16 34
-0.1603604637672828 0.2484018452927153 1.0105382120268622 140 26 34
0.1457011375225110 0.2037148071771478 1.0191692901841642 58 25 36
-0.1028408552182628 0.2423734486511941 1.0525961567737232 36 15 0
-0.1590045935457091 0.2745920843574061 0.8758458770055555 153 100 48
0.0875033765378264 0.2028197426512413 0.9853265945041484 123 104 90
-0.2227117405751955 0.1862800171513484 0.9105202679783587 200 69 85
-0.1903638182471000 0.1671711417927866 1.1161350339895575 46 8 21
-0.1613777345935861 0.2776786195232412 0.8739705315401290 150 81 48
-0.0716366695284854 0.2420172701485161 0.8701834988249083 151 131 107
0.1462022455519200 0.2114767272326017 1.0124235866366207 133 118 97
-0.2089257358769493 0.1329554337297838 1.1313259928190627 199 163 129
-0.1093271011328733 0.2426910665476011 1.0504032049905960 50 45 26
0.0799502449775624 0.2188249411966116 0.9673219113813689 100 78 67
-0.1326832034385074 0.1405149074003111 1.2147075078328846 75 16 18
-0.1151727634122179 0.2434146022737314 1.0466384837058500 180 186 152
0.0918982752336096 0.2178613540357660 0.9752735041962530 138 112 97
-0.1918828815791009 0.1359300468353877 1.1537560305332526 196 183 141
-0.0486333732533777 0.2397300748463642 0.8893826091169400 128 108 81
-0.1360300839290033 0.2430875664116305 1.0301313037417668 134 14 16
-0.1821248357039447 0.1375232379113092 1.1656581188488317 172 122 95
-0.1360300839290033 0.2430875664116305 1.0301313037417668 134 14 16
0.1046035490189081 0.2154567352853478 0.9829247298956172 121 104 88
-0.0458261207275447 0.2378492900540854 0.8864474405099338 128 108 81
-0.1919037435345222 0.2727366674693806 0.8471595557945234 248 203 172
0.0044227082379539 0.2358362571869597 0.9603990775049654 35 39 38
-0.1644745256327805 0.2473879788378376 1.0111258388875710 167 32 38
0.1061073532710308 0.2144160406244954 0.9852522504268956 71 40 37
-0.0937767254434422 0.2477313159143362 0.9113065455558644 53 36 29
-0.1644745256327805 0.2473879788378376 1.0111258388875710 167 32 38
-0.0914028799190189 0.2379263421484047 0.8647080959413704 90 55 36
-0.1374395998548286 0.2428638055119627 1.0297282004412494 143 113 85
-0.0602798579597592 0.2476333789201554 0.9358118795411990 45 17 6
-0.1828514315108812 0.1339090563066135 1.1694318606037950 193 166 136
-0.1160985398639836 0.2423426355209795 1.0471711171887468 16 0 0
-0.1160987765607984 0.2423317183425913 1.0471654694616661 16 0 0
0.1438797537329803 0.2027712802194900 1.0246481517577501 53 23 15
-0.1329445767168334 0.2429699065103997 1.0352660907599756 181 34 44
0.1413842585426270 0.2124386703161151 1.0094213420594231 135 122 105
-0.1369718469454717 0.2425037813825361 1.0317227072093367 213 167 151
0.1386049066263498 0.2129739952524211 1.0082879706468311 51 36 29
0.1398748126839927 0.2121486494027212 1.0083204903238423 51 36 29
-0.1552893566378545 0.2731384387747545 0.8972021056824758 71 8 1
-0.1358277110650452 0.2428022480484801 1.0333181031094745 141 20 27
0.0984552224292349 0.2185224898516937 0.9779608814416162 43 25 23
0.0814410567103090 0.2140618457296553 0.9728958724662329 29 14 11
0.1421781779920699 0.2126037293130248 1.0112672385917205 29 8 0
0.1181305524177932 0.2118474323666283 0.9953675415940937 155 128 111
-0.1878291674468000 0.1289582985334240 1.1700340517240784 150 89 71
-0.0624142374218007 0.2503014157664054 0.9444108951787081 184 184 148
-0.2568602209685931 0.0548703301719466 1.0536300703486512 208 78 86
0.1072978990405425 0.2113409712989210 0.9889117574318763 70 27 20
0.1072978990405425 0.2113409712989210 0.9889117574318763 70 27 20
-0.1845093660115870 0.2447943166335063 0.9982114327385505 213 218 198
0.1259273997033101 0.2125511761132909 1.0349264050003801 126 107 101
0.0936519514622140 0.2118510614261647 0.9809679146677239 68 38 27
-0.1163011287806234 0.2406567234159823 1.0515399434027686 31 16 13
-0.1161257253655528 0.2404076614858160 1.0513293800187622 31 16 13
0.0867729471926685 0.2316060700072495 1.2125894826990695 115 101 98
-0.0705322573784761 0.2533755784955072 0.9407030106267746 153 148 118
0.1150579536141945 0.2098135738510753 0.9938209676880072 94 70 58
0.1207727318345184 0.2142259139814211 1.0337523781142082 65 46 50
-0.0693438909041688 0.2524300088931785 0.9406680264915507 139 132 103
0.1245113447513742 0.2113990768047534 1.0342355034050925 33 14 16
0.0951078205504181 0.2112096160583256 0.9824131762264262 143 115 103
-0.1607989925768506 0.2448642944682634 1.0203391792792618 167 34 39
0.0921716800534084 0.2299542911521822 1.2173543546391938 22 13 18
-0.0938857797357286 0.2488912224421985 0.9230074990337582 173 33 44
0.1101360278479491 0.2297050649977527 1.2316122732070949 46 39 46
0.1405444810410243 0.2094967753272500 1.0116454812450983 41 21 22
0.1100582692880969 0.2298251126284437 1.2316863976694512 46 39 46
0.1405444810410243 0.2094967753272500 1.0116454812450983 48 38 37
0.1096349920869641 0.2310410932566509 1.2336306941982795 156 143 124
-0.2351925532376720 0.1042090538284007 1.1146798715780688 162 157 154
-0.0715280847580885 0.2546005693422211 0.9489924024605946 55 39 39
-0.0909062384434238 0.2496698851853246 0.9273264252021701 205 178 157
0.0863926125749180 -0.0441907233521397 0.9364696894186930 29 24 18
0.1170323919815447 0.2124019717469555 1.0385983795065095 112 95 87
-0.0908947584367681 0.2496516554454332 0.9273578734506085 150 119 101
-0.1626055200460538 0.2444226172767369 1.0205596387616576 201 165 133
-0.0859570289350230 0.2517497502978805 0.9334279402876696 176 43 48
0.1123505186072196 0.2187247452687598 1.0427143667465999 172 165 157
-0.1881825829214590 0.1198745656760274 1.1812488963588124 143 141 93
0.1449797060389952 0.2052316621143731 1.0170368142011388 159 147 133
0.0853141181208235 0.2068735808010200 0.9797722955848277 33 11 13
-0.0993602399544905 0.2530540429891932 0.9260053261567427 104 4 6
-0.1885618953501801 0.1184178606967662 1.1830420260944883 158 158 108
0.1177119680677177 0.2303730075724447 1.0622177834712880 109 102 92
-0.1406613959690922 0.2409604290419453 1.0387242469316764 200 174 149
-0.0923775101540055 0.2550569731163940 0.9332377286976585 151 142 109
-0.1406613959690922 0.2409604290419453 1.0387242469316764 200 174 149
0.0973880160318329 0.2042404036750753 0.9881318919525922 74 35 28
0.1114150280879282 0.2033523911275839 0.9960362108732635 81 33 29
-0.2288382395129806 0.1031079915606643 1.1328742640655913 76 63 83
-0.2506922512369910 0.0515289704647622 1.0351501396434015 135 51 40
0.0987553483995516 0.2044471325823055 0.9894662482686751 144 113 93
-0.0492782292869119 0.2532001441975102 0.9623736891729047 113 91 44
0.0869721795705808 0.2042229983896874 0.9813615791952229 121 99 88
-0.0523017034287978 0.2559366591921104 0.9678395421236883 176 169 125
-0.0498062571614928 0.2539226316888289 0.9620501224714061 113 91 44
0.1091647095307790 0.2279169005044606 1.2370115873743197 168 155 139
-0.1655134601273532 0.1153051986833903 1.2129606404408764 174 154 143
-0.0296401053631924 0.2290050504477500 1.1233229261031414 145 95 42
0.1129064771628608 0.2005714916946797 0.9994298971960647 69 33 19
-0.2200863623075854 0.2133310201842441 0.9534560459530067 130 48 8
0.0992100985401920 0.2012291829814500 0.9912868970057032 86 48 37
-0.2659348431073419 0.1105578033248091 0.8351978867961449 255 220 238
0.1148957169157148 0.2257216296054438 1.0514973785435360 179 171 168
0.1166498871798100 0.2242545144294415 1.0508359713773701 179 171 168
-0.1669607561372610 0.1393421461543351 1.1834261173947336 141 81 55
-0.1996141306226806 0.1788513729887090 0.9452694818279630 216 82 115
0.1168021413551231 0.2262961081012136 1.0532430472501890 45 34 40
-0.1434242598707868 0.2529425628719072 0.8797122836991421 74 26 38
-0.1386647593855171 0.2403437443861440 1.0431098224558013 205 163 147
-0.0906559646070369 0.2541330728792049 0.9396810963277066 137 124 92
-0.1353963840392434 0.2399831971705252 1.0464999487120965 161 32 36
-0.1901949511304138 0.1120173763682847 1.1886722560977943 192 185 139
0.1152431549170751 0.2269223918077369 1.0574819115192573 111 93 91
-0.1910800494411466 0.1109325647642562 1.1885240489935438 120 101 68
-0.1407096533501677 0.2398197327476593 1.0430004174300194 177 34 38
-0.0938715060826825 0.2584203729736335 0.9467238720023423 159 150 121
-0.1910800494411466 0.1109325647642562 1.1885240489935438 120 101 68
-0.2616937276322458 0.1026070919514686 0.8372871220210780 238 254 255
-0.0845596702051433 0.2458784309405813 0.9159977019370502 176 182 148
-0.1568541726621309 0.2409556393842382 1.0328406817664424 110 10 8
-0.0844167627348900 0.2462381163053679 0.9154015066099668 136 130 98
-0.1387281049376939 0.2391415697785058 1.0469274227779515 152 16 18
-0.1385118359728743 0.2389591881821196 1.0468312978849206 152 16 18
0.1098662457263421 0.2348165340973640 1.0688218548431447 115 103 91
-0.1597545179121669 0.1088015808448275 1.2256675616326329 50 24 25
-0.0906273141637968 0.2572165581687308 0.9452650721216493 171 37 44
-0.0833563789501372 0.2463329144516278 0.9182635659204104 52 35 28
-0.0732558517739602 0.2579271640971821 0.9577244148103896 71 42 38
-0.0561969336525590 0.2305052512516383 1.1129815110999144 209 164 125
-0.2393622232181473 0.0884027744922105 1.1294238353546553 161 155 165
0.1128777860862140 0.2347585756286915 1.0723145502323270 59 31 30
-0.1816022796375179 0.1063302581722500 1.2066984064689794 196 207 167
0.1034666123319439 0.2210673878033364 1.2433366223728606 64 37 30
-0.0703152154036630 0.2593850257230748 0.9614348931049983 153 149 112
-0.2358877667735893 0.0885196194432390 1.1380275553602597 178 158 169
-0.2575092570302998 0.1143685716322471 0.8567378135396193 154 175 196
-0.2813697501957523 -0.0542337392157881 1.0091616460357371 202 77 75
-0.0716660484603568 0.2520793427412523 0.9355118508266017 38 19 15
-0.2256225229326682 0.2014804297727890 0.9510651684680193 139 67 45
-0.2015449560798568 0.1027467485579355 1.1852665160811162 195 191 154
-0.0746002230255484 0.2576502901095057 0.9597742483362679 189 188 157
-0.0451807077527153 0.2488884327205653 0.9517957335204169 99 67 28
-0.1645552794747319 0.2382308686263738 1.0337968983700490 176 168 147
0.0966682461154747 0.2303198484487133 1.0605321631697766 162 155 147
-0.1768042821772492 0.1044764053620125 1.2139493868648168 153 156 125
-0.1719121308259087 0.2381466769497019 1.0281030190787479 138 12 15
0.1233263276848577 0.2083628660510620 1.0295312638214249 36 14 16
0.0978434630298844 0.2340036631818095 1.0649326676782549 172 163 158
-0.1036383117127775 0.2594894153632986 0.9403479959849864 119 4 7
0.1273886570592400 0.2155267510079543 1.0404820961498051 129 118 112
-0.1866621270972292 0.1025381548540234 1.2051123315759651 96 92 54
-0.1372015711186097 0.2347717294754407 1.0551527307055497 86 75 45
-0.1952727651003212 -0.0347970707658179 0.9369646756195354 120 112 127
-0.0777632063149700 0.2589486982153760 0.9578104120293141 157 147 122
-0.0911745157092777 0.2489302601459276 0.9254181657012747 135 34 38
-0.1357027376939640 0.2334082715584361 1.0553797109535301 56 30 5
-0.0908951053398592 0.2491670530126660 0.9252434042429399 135 34 38
0.1273869353460401 0.2443682088633842 1.0878630860101928 50 35 12
-0.1903004749664318 0.1017988571178760 1.2017329883430568 112 102 77
0.1090560784662607 0.2139806316837374 1.2491277183631826 122 98 88
-0.1703218318289885 0.2379339184158681 1.0306775319303072 116 13 14
-0.0651505515475800 0.2538477241727250 0.9457420351282051 25 8 0
-0.1878282538982760 0.1019238783012992 1.2049790278280887 172 179 127
-0.0677155843993043 0.2581354603812318 0.9665724725403173 61 58 51
0.0961561559297485 0.2249168483201798 1.0584316536106180 102 88 85
0.1050796224250130 0.2267394249879426 1.0591360355205954 34 17 25
0.0972072474466193 0.2325326129648859 1.0671441212664672 117 105 109
-0.1810094841347253 0.1013963021202169 1.2137940461469519 81 63 41
-0.1729342467188716 0.2374062424703927 1.0300076114041068 163 34 39
0.1240408257032477 0.2218204162923107 1.0482442458985666 179 171 169
0.1229166788645476 0.2229203930426512 1.0487471501895222 179 171 169
-0.1168694207109923 0.2532664409427066 0.9305025706176655 53 39 36
-0.2069597403072358 0.0987636951722528 1.1831763538295244 143 90 72
-0.1708822871353269 0.2370110385007757 1.0322288357027778 163 29 38
-0.1800249883734481 0.1005310107852176 1.2155065273170074 69 63 39
-0.1808760527452001 0.1241058844577665 1.1845715769033274 197 180 136
0.1009323380632313 0.2349188546443101 1.0718279023199855 128 104 104
-0.2598813546540907 -0.0017509205616282 1.0716936203180003 141 5 0
-0.0994263453424825 0.2598601879602604 0.9476213444661196 174 41 46
0.1043860160228759 0.2165555864222268 1.2510200448415443 122 98 88
-0.0690404527368495 0.2554518886144446 0.9489303056716183 130 121 92
0.1179807082865335 0.2162758342242045 1.0402493230826193 140 140 138
-0.1808030019874876 0.0993200127485448 1.2157989374778111 123 117 93
0.1117366438777184 0.2367222561197727 1.0741193891295566 126 105 104
-0.1528656324770283 0.2349544586728361 1.0472735153648380 187 188 154
0.1211950610736772 0.2451160657793064 1.0988269745880717 176 151 35
0.0853019132664905 0.2271517135978930 1.0585420876843781 146 133 125
0.1032180305838835 0.2184933215183741 1.0522929083812158 45 18 25
-0.1024734547701595 0.2632208548379922 0.9584098851854265 193 183 156
-0.1200388357699401 0.2525195169648282 0.9297352093937253 36 27 12
-0.1737037369056987 0.0984311650543311 1.2252104911243449 160 166 120
-0.1200388357699401 0.2525195169648282 0.9297352093937253 36 27 12
-0.2597243412433494 -0.0481550072334436 1.0061181996013786 194 44 71
0.0884859783342401 0.2357399358708911 1.0699289435881725 52 35 43
-0.1910877546865945 0.1179390728766707 1.1797273124286831 163 124 93
-0.1765519182969119 0.0971385201580424 1.2228986292712758 52 24 23
-0.1856814529544046 0.0975357196570190 1.2128782538850502 75 60 55
0.0886393247927445 0.2308110455051173 1.0665796037059694 45 25 26
0.0870356119018263 0.2291708032904354 1.0644827129652767 81 67 67
-0.1750229971415331 0.0959177574629398 1.2264494461907454 56 37 30
0.0901949452698183 0.2270934280024398 1.0655546632466439 108 94 93
0.0946134089919008 0.2110866867405024 1.2551775902789961 43 27 28
0.0958508472443649 0.2281091925115521 1.0592944377455789 60 32 46
0.0851759826931648 0.2389873611647342 1.0728291477351088 141 134 142
0.1367801363110433 0.2336765787226642 1.0782103466595927 150 118 35
0.0982216639728609 0.2354180570172983 1.0679982226184968 62 38 51
-0.1698258410212903 0.2336625876846344 1.0409315267658241 42 21 2
0.0891681105671286 0.2365803724262769 1.0731826160860805 98 79 81
0.1094551075401256 0.2230055433462006 1.0491152716239314 49 32 48
-0.1698258410212903 0.2336625876846344 1.0409315267658241 42 21 2
-0.1003141518407042 0.2632689282520751 0.9616251145553922 134 31 32
-0.1733506894243529 0.2332071569960436 1.0377229571490978 184 190 154
-0.0937069761262062 0.2559041762891955 0.9403702413930005 131 16 21
0.1007323636578861 0.2372591433549783 1.0740646985463111 20 0 1
0.1128630384163111 0.2287229184582063 1.0606106501156332 129 104 99
0.1129243792962192 0.2288384034252510 1.0605093804422487 129 104 99
-0.1893623666061640 0.0934227696611544 1.2141750004884362 103 75 64
0.1170824681050087 0.2359606738312792 1.0693223029026786 105 87 49
-0.0581475403017940 0.2557360939586491 0.9789840588884886 173 157 98
-0.1437456859361440 0.2295973662406978 1.0625773201240141 211 165 142
-0.1755045344796636 0.0919108702332227 1.2305316598335201 57 36 41
0.1133283605477690 0.2293336130387200 1.0630948882659563 136 120 107
-0.1737296691495017 0.2321669107734555 1.0397896455515159 180 166 140
-0.1012170372776988 0.0984813957129313 1.2825147754031256 160 149 104
0.0915321071836385 0.2474024800035695 1.0926187652317425 170 161 152
0.1575550779840803 0.2501244660986878 1.1274483627093514 34 20 0
-0.1780295887333177 0.2319019248911961 1.0366429712129643 197 179 155
-0.1273964302625157 0.2573313908484095 0.9349598493368775 50 24 23
-0.2322272658531530 0.0940235541265624 1.1396114250783187 173 168 162
-0.0372688702267934 0.2212409810384714 1.1502077846530518 138 115 71
-0.1267940337011015 0.2594337741743294 0.9370649436120140 134 129 97
0.1056935620654292 0.2194487897992460 1.0488183759145124 35 9 12
-0.1268588061341513 0.2626688240590889 0.9501739553215488 51 33 29
-0.1567115149080672 0.1071857585860304 1.2305045661828007 91 41 34
-0.1258536235386123 0.2582655143132633 0.9372047070167838 120 114 82
-0.0811255175172731 0.2566524579476008 0.9798486237720547 76 42 30
0.1610331074470881 0.2508943694161231 1.1347599791236960 27 17 0
0.1178619981666844 0.2465607121083164 1.1160036131472426 185 167 33
-0.1728585432694129 0.0902635609098077 1.2352468280140572 155 163 140
-0.1672788779198097 0.2301475339226430 1.0466425560482071 181 180 150
-0.0764272306455783 0.0850650052567828 1.3105921818336190 70 23 15
0.1092567141211589 0.2298811173122411 1.0614626313019839 19 3 3
-0.1424612481328916 0.2268731025052703 1.0662436788453111 46 11 0
-0.1763583306140081 0.2306625381837651 1.0398268541464613 180 164 139
0.1544778079001450 0.2505487333534583 1.1293128119514186 32 20 0
-0.0693769668871425 0.2586270832846467 0.9641121070599821 158 149 116
-0.1758836420153136 0.0887981171544466 1.2326182442642679 42 20 32
-0.1362155231548564 0.2636835407743894 0.9486868402644628 31 3 0
0.1058265101231662 0.2241631502251572 1.0555109031558136 117 103 103
0.1557094806440497 0.2498015784765225 1.1303937425667230 32 20 0
0.0250180770873800 0.2309704979855856 1.0389707426417902 49 36 28
-0.1693247716544117 0.0877728596785535 1.2416687632481604 65 47 33
-0.0544471569870837 0.2562790603976606 0.9730992838639680 109 86 45
-0.1511702904258781 0.2281485987031327 1.0618081032956108 181 153 129
-0.1550607511619592 0.1008363205421151 1.2402961786099136 73 28 31
0.1441048296645562 0.2522924921379820 1.1459584500289486 35 46 4
0.1441347888203055 0.2520439156963051 1.1460119187067024 38 36 13
-0.1875558850590167 0.1148384322402717 0.7689820785791330 179 158 129
-0.2556649906774205 -0.0066366508699460 1.0711393286650452 219 122 69
-0.2556649906774205 -0.0066366508699460 1.0711393286650452 219 122 69
-0.1764737622231648 0.2275428416900203 1.0461676606679351 194 183 161
-0.1215863291970405 0.2628421502030936 0.9480834250780255 48 23 18
-0.0747321108724925 0.2600573292847939 0.9628335425028158 140 133 114
-0.1208219852231275 0.2615016058307701 0.9490128079070016 51 38 21
-0.1785372335857823 0.2268239167184871 1.0452804214801412 185 191 163
0.1062934579495287 0.2345230061249261 1.0669758937906422 48 30 28
0.1556840856534582 0.2485675607898825 1.1155177002471304 57 41 25
0.0874544306189380 0.2449923682424529 1.0820132141891412 142 130 134
-0.1376796298152015 0.2683844950891930 0.9605242793717765 139 124 95
-0.1716313009456973 0.1000793214395363 1.2257545262640657 180 186 152
-0.1734936091905415 0.0824158017052336 1.2426459192641370 66 41 36
0.1495454692858183 0.2528619877501009 1.1336619205327350 35 29 5
-0.2309598189051504 0.0752012072624219 1.1735225638882829 232 224 222
-0.1686994889436954 0.0805622501857098 1.2487978999108507 16 0 0
-0.1773721566893011 0.2255633951255789 1.0491385759839149 194 166 144
-0.1771981363506953 0.2254040919677882 1.0490952861652296 192 168 144
0.1474836542521866 0.2551432544856875 1.1573760212230797 55 32 0
0.1610953551527737 0.2434475850591886 1.1174027183873796 130 99 17
-0.1724907195385653 0.0781864284717329 1.2482195641514573 138 114 80
-0.1133245702900413 0.2124921715931069 1.0990614611352867 183 164 149
-0.2248179484400643 0.0738246483109792 1.1881804575721180 190 108 86
-0.1286039129530040 0.2534741210594930 0.9265137010648412 20 20 0
-0.0898436577525429 0.2033094922843686 1.1168936238608540 174 130 81
-0.1077644713536183 0.2580642177638521 0.9785702931423145 173 168 128
-0.1286109017958342 0.2545534368911689 0.9258745537963239 50 27 13
-0.0894815322933030 0.2029598654476782 1.1166499318486709 174 130 81
-0.0988800071154235 0.2615956704469888 0.9694962545795280 156 48 46
-0.1285946028165059 0.2645074120597063 0.9691939294001189 42 15 8
-0.0659827246473435 0.2512548242436233 1.0048925123765955 133 127 75
-0.2245378532691321 0.1420613726123901 0.9567391586523226 153 67 52
-0.0691087456425823 0.2574664043073516 0.9724303019482435 59 58 37
-0.0689617360172858 0.2572251242357266 0.9722801482632702 59 58 37
-0.0626890898861466 0.2104254831572412 1.1511309700473005 122 70 48
-0.0922812989149509 0.0441821917436913 1.3353449362775047 48 7 5
-0.0483227268117056 0.2114066552289490 1.1646042768578304 173 124 92
-0.0480570236541981 0.2113038553306848 1.1644974433802155 173 124 92
-0.1729283352200412 0.0695042730224757 1.2551252537937343 112 24 23
-0.1120729117241121 0.2574241688549069 0.9800957813134701 145 142 99
0.0908747556569056 0.2452346289825665 1.0930629574849113 36 19 12
-0.1078878577292690 0.2565651590997106 0.9833430548659751 46 29 22
-0.1094747371528748 0.2642057614342839 0.9654409828563780 218 177 149
-0.1091814179231946 0.2632395441034825 0.9650139947599099 219 184 164
-0.1688618070332936 0.2190625476471273 1.0660016832936838 154 160 126
-0.2382068725791339 0.0298184363542244 1.1653124907273495 166 169 148
0.0921928460740673 0.2483603172977346 1.0985565940145647 162 152 153
-0.0837183211340680 0.2511177038514378 0.9988079902392357 31 24 18
0.0982462837843513 0.2357671639353025 1.0716049251104836 123 102 101
-0.0726890702539457 0.2534470196887220 1.0156470707399898 105 91 46
-0.2677831591415765 -0.0243429901993035 1.1035560094960830 182 86 90
-0.2169577184252584 0.0873862387385476 1.1819774775355079 193 147 111
-0.0602593020103978 0.2083920341764995 1.1576908602699354 132 74 60
0.0832797152848066 0.2264691594184132 1.0533468868071851 147 130 122
-0.2169577184252584 0.0873862387385476 1.1819774775355079 178 121 92
-0.2870825128303498 -0.0301824861604974 1.0781667729050366 149 14 28
0.1163482636460479 0.2515426961273357 1.1564058249873999 179 153 14
-0.1213989043147086 0.2071724879104000 1.1053400499574038 76 41 39
-0.0880815649471506 0.2509136861059999 1.0033883356772397 187 186 156
-0.2303720575538427 0.1369135859268164 0.9560001042863197 212 53 81
0.0848951132072949 0.2480386701192425 1.0942103349025551 113 94 96
-0.0912290597942109 0.2506449277309462 1.0036903133232395 48 26 15
0.1515755380580630 0.2533019178483735 1.1470411915590364 160 144 56
0.0910404549976870 0.2463322453117741 1.0982782865135814 41 16 12
-0.1350177479315056 0.2113976558644630 1.0966416245215287 146 98 76
-0.2917367133013217 -0.0340981937082206 1.0798338571809076 119 19 4
-0.0824560769620377 0.1963861826216234 1.1351935656575651 150 92 70
0.0185223009798142 0.2294145688785163 1.0706304219003897 150 99 80
-0.1839173040371108 0.2160961625133052 1.0589404218817366 193 205 181
-0.0926847625342109 0.2500956552441400 1.0058394835318318 178 178 144
0.1470394935662185 0.2510395591916613 1.1453280667400119 136 105 23
-0.2192684530015597 0.1546712780933751 0.9822946523266896 99 10 4
-0.1316135747183399 0.2565920410503198 0.9299011313837983 45 17 13
0.1434079009074114 0.2547544604758871 1.1459471061979474 45 23 0
-0.2192516560933727 0.1546832892904935 0.9825024629370074 173 165 162
-0.1103604084048002 0.2518226947651426 0.9958229565317738 159 34 38
-0.3013927202539445 -0.0400075514889772 1.0745932330493320 135 81 34
-0.1377510939532121 0.2646268605346359 0.9530813414920201 64 35 27
-0.0911947136121824 0.2500350850614921 1.0099631552137762 181 183 161
0.1164866460718224 0.2512248271747791 1.1699421964168666 67 50 60
-0.2103092043470803 0.1694559380997555 1.0070879064222202 205 119 132
-0.1300449169225465 0.2676321016721056 0.9610222273412455 57 33 21
-0.1287946365420594 0.2560631563147431 0.9363779384553023 126 110 87
-0.0528779760703344 0.2022140577548246 1.1763135804793525 145 83 70
-0.0813445973566548 0.2594741036397204 0.9718610162105954 148 134 97
-0.1328727289578285 0.2665550662706367 0.9602440981464162 79 44 40
-0.1815933830303978 0.0288974556894801 1.2770123250868421 65 16 12
-0.0985657973181435 0.2613978376746795 0.9645742661249271 189 183 147
