ply
format ascii 1.0
element vertex 694
property double x
property double y
property double z
property uchar red
property uchar green
property uchar blue
end_header
0.1154075081725889 -0.1806330143129666 1.0552396527482391 196 141 87
0.1439136274336577 -0.1869548729301782 1.0867435689696896 40 29 9
0.1326938826024562 -0.1784294128023723 1.0665620640033566 192 139 73
0.1326938826024562 -0.1784294128023723 1.0665620640033566 192 139 73
0.1411392039158679 -0.1774916441763206 1.0743645552655758 39 18 0
0.0225831057832374 -0.1619163043828284 0.9910766356037116 50 43 14
0.1447011718742248 -0.1741570658809288 1.0751380615686601 40 13 0
0.1332124927549852 -0.1735858239342097 1.0631513645499417 140 33 17
-0.1516521875554631 -0.1041904131700200 0.9350361119084385 198 211 183
-0.0649661269273583 -0.0046703992462712 0.8514204980329823 67 58 59
-0.1164823416375644 -0.2456086303267443 1.0897672565860719 8 7 0
-0.0249845263864891 -0.2478984294119201 1.1309713484850221 168 172 113
0.0001616145329767 -0.2231268023480019 1.0803115563834567 217 230 160
-0.3201413635012879 -0.3110378594718229 0.9940552192285523 138 66 42
0.0401199809254871 -0.1932320432050011 1.0337528822039566 199 201 138
0.2994162327071310 0.0592333792378817 1.0414058002382875 46 21 24
0.0970466763655300 -0.2129526232793447 1.0944973727352105 127 70 43
-0.1994515261822132 -0.2660175825566145 1.0919533977230163 40 26 0
0.1287317505212964 -0.2144739365205200 1.1069436926700906 159 129 57
-0.3780015884552339 -0.2866284801151397 1.0305598869769694 61 39 41
-0.1579161402341915 -0.2473430950398924 1.0798254443841269 5 3 0
-0.1678311412317480 -0.2685089858771448 1.1102567849110492 134 129 74
-0.1524795800859368 -0.2697653221074715 1.1252916098323236 93 84 41
-0.0131035437733482 -0.0194203416385486 0.8761535500446652 33 17 2
-0.4279343754064141 -0.2439933016825133 1.0202582130876241 12 2 13
0.0738634215134483 -0.2116270728288539 1.0616518522187424 212 211 154
0.1320259919699126 -0.2119677905779647 1.1067346453004074 44 24 0
-0.2215813137220663 -0.2602155236764532 1.0564797668459402 184 179 137
-0.0564644665037818 -0.0084974013359058 0.8536175636813333 197 205 154
0.0417457303414772 -0.2032660942665788 1.0450580027055616 213 211 134
-0.1433811793527443 -0.2660635953505274 1.1224311462497825 166 151 86
-0.2473366917866694 0.0927274550408605 0.8448262109591707 99 66 75
-0.0562391124445480 -0.2544955539528354 1.1466881207281137 214 227 147
-0.0294802259918449 -0.1829185833355409 1.0136330873828301 210 219 152
-0.0294802259918449 -0.1829185833355409 1.0136330873828301 210 219 152
-0.1457679205066568 -0.2649287279476280 1.1140367628794186 15 17 0
-0.1941336065513318 -0.2782575691273937 1.1429878379335028 104 90 41
-0.1698832370753814 -0.2602885815656484 1.0965214966073922 25 22 5
-0.2225407342612523 -0.2289022460527685 1.0206490346253827 172 188 177
-0.1474160782652023 -0.2637929534400105 1.1128664664002172 149 140 65
-0.0753636610270609 -0.2677654143105794 1.1821400175908645 148 137 81
-0.1933794987134638 -0.2567688983591921 1.0720610536526431 157 132 78
-0.2570026514195022 0.1039897502309457 0.8351703539963700 123 102 107
-0.1402052259610162 -0.2633106399545199 1.1153318028470933 172 163 86
-0.0717825000037157 -0.2662588767226498 1.1736127730044652 159 149 78
-0.2947258406940853 -0.1540074537545555 1.0713215225280004 150 36 36
-0.1578257266388236 -0.2365072466075935 1.0603881584995778 116 106 47
-0.1878381737480690 -0.2529934331221775 1.0699740052582696 27 13 0
-0.1500502984755477 -0.2577281925506119 1.0984163513632872 203 196 115
-0.1399852919425348 -0.1553276600922750 0.9530108727646436 157 160 103
-0.1399852919425348 -0.1553276600922750 0.9530108727646436 157 160 103
-0.1692942359619452 -0.2362381818464385 1.0481748468573722 143 126 57
-0.0743230718591459 -0.1684841397571734 0.9857639990892317 67 51 2
-0.0951382758624173 -0.1688679039521740 0.9685029741375027 166 158 85
-0.0585563512979672 -0.1689418693739363 0.9972536684146440 38 35 0
-0.0584485942649229 -0.1691164231863010 0.9972167853156259 38 35 0
-0.1256516843078816 -0.2425398138801101 1.0828137905041189 181 196 111
-0.0179864131294011 -0.2567919829962477 1.1520412874348043 80 54 17
0.0594424185875717 -0.1990821243800300 1.0445957227595521 90 83 29
0.0594424185875717 -0.1990821243800300 1.0445957227595521 90 83 29
-0.2064922140559444 -0.2695420018935230 1.0939440278006638 38 21 0
-0.2010342097097407 -0.2700422067360992 1.0974288929816685 132 116 57
-0.0932126685056424 -0.1672752819245890 0.9654193034764479 67 64 21
-0.0844034326965521 -0.2684175476711859 1.1948139157152844 136 112 66
-0.1425096604848531 -0.2511906485823726 1.0900792264269794 13 16 0
-0.1386367146512791 -0.2515674351504831 1.0926801945571916 177 181 104
0.0384629402481502 -0.1905897420075274 1.0293812095406853 205 206 136
-0.2075839444678661 -0.2409238472823231 1.0294419140810755 101 110 81
-0.1705620587396547 -0.2423456043719519 1.0599227325043938 22 5 0
-0.1705620587396547 -0.2423456043719519 1.0599227325043938 22 5 0
-0.1453764999955155 -0.2446550245999380 1.0769937765772675 195 187 115
0.0027029454193362 -0.1797126341390528 1.0082853634646680 225 228 149
-0.1448570662543268 -0.2432111190886525 1.0757142599837795 13 4 0
-0.1366362707264333 -0.2291638223979315 1.0581797935510462 185 171 98
-0.2451036803367981 -0.2018147700488195 1.0424283572686215 226 245 223
-0.1608436440275027 -0.2381691645768237 1.0611266704522915 134 121 66
0.0217936284330940 -0.1812338882394217 1.0137513519999541 208 212 162
0.0042184799986890 0.0491667634676506 0.8722061528640014 43 38 9
0.0019330904677049 -0.1759593043532921 1.0025941153622095 223 224 144
-0.2213684008533434 -0.2256241080856024 1.0178117314235828 217 240 220
0.0889703611942375 -0.1925320937969109 1.0481528204605601 205 201 128
-0.1667026767297190 -0.2371175172966457 1.0525716469720794 70 51 11
-0.0821776093403892 -0.1591572700173479 0.9583445371281104 145 139 91
-0.0822417515498227 -0.1590420197555998 0.9583369992174524 145 139 91
-0.1284949698558928 -0.2418454643817968 1.0809481524535196 101 99 50
-0.1284949698558928 -0.2418454643817968 1.0809481524535196 101 99 50
-0.1643051005151230 -0.2352648161666590 1.0510479354091864 32 14 0
0.1262337898424692 -0.1899127082775668 1.0717172151614272 145 96 37
-0.0175909076419589 -0.1671223918853157 0.9911889259610223 219 226 159
-0.1513958400058480 -0.2356680160033497 1.0613973486844039 134 142 82
0.1294254547825860 -0.1893665930050622 1.0744796462051169 130 42 2
0.1294254547825860 -0.1893665930050622 1.0744796462051169 130 42 2
-0.1765673689103486 -0.2341612341983303 1.0367907851127343 22 9 0
-0.1765614483605985 -0.2347171983444456 1.0364513941707012 22 9 0
-0.1605640065044102 -0.2357149154306686 1.0511599522737560 28 20 0
-0.1619663688508401 -0.2336934084882194 1.0508327333567691 135 121 60
-0.1517375346827043 -0.2347465065020040 1.0593461298945164 24 18 0
-0.1516971432358001 -0.2346619248478656 1.0594936670065054 24 18 0
0.0140664140961433 -0.1727654671967221 1.0007464945300895 157 163 127
0.0140664140961433 -0.1727654671967221 1.0007464945300895 145 148 105
-0.1263208706493783 -0.2382540469557697 1.0768223905772734 99 96 43
-0.1556025564621147 -0.2227103482963790 1.0273129050158816 156 141 76
-0.1263744697602273 -0.2383908655740845 1.0767903089127642 99 96 43
0.1276070238282853 -0.2521440153184467 1.2960983108807929 11 5 7
-0.2830116199975087 0.1345355099991499 0.7648643539901324 145 120 126
0.0854996554029261 -0.1837246859421323 1.0378210552326652 52 49 8
-0.1628676679228864 -0.2329761898401490 1.0483605329215269 33 19 0
-0.1628676679228864 -0.2329761898401490 1.0483605329215269 33 19 0
-0.1668556489824328 -0.2319134407815216 1.0441789800269934 130 115 48
-0.1319543854804180 -0.2212568817849384 1.0464136244839355 143 133 62
0.0482530179713483 -0.1754428171846891 1.0175858184950164 56 57 23
-0.1463850435476198 0.0450126543765108 0.7660578414751645 126 119 127
-0.1390912903832141 -0.2342024132498308 1.0662376122826551 35 29 0
-0.1390912903832141 -0.2342024132498308 1.0662376122826551 35 29 0
-0.1487660280101447 -0.2313560171219801 1.0558944096983991 29 22 0
-0.1487660280101447 -0.2313560171219801 1.0558944096983991 29 22 0
-0.2169314801302913 -0.2158094680872705 1.0089082417317459 247 255 246
-0.1653415482906905 -0.2280896364960932 1.0361015228219850 132 113 57
-0.0680759344038835 0.1265910988870925 0.8611934502808596 75 73 76
0.1271985864104581 -0.1745275384316172 1.0582956952782816 177 141 67
-0.1472983714163238 -0.2285408922347158 1.0509082355551582 27 12 0
-0.1475217838263207 -0.2280792466391259 1.0512114856629027 27 12 0
0.0046898407616006 -0.1602038431407934 0.9835459643300338 180 183 126
-0.0571262669236545 -0.1476244743229759 0.9527430094261340 70 50 15
-0.0544470285893107 -0.1491923449843080 0.9526066298946583 54 37 9
0.0380270700134233 -0.1653163400855806 1.0003517308893710 197 197 125
-0.2287507429468444 -0.2052902012278852 1.0076497592222766 224 255 247
0.0573325754750407 -0.1867472076475385 1.0304249798954650 9 17 6
0.0205465433302327 -0.1623098030661063 0.9900426424286942 184 193 128
0.1519725468147190 -0.1696454726482731 1.0782488415648606 55 28 0
-0.2122870414574274 -0.2131128890991601 1.0070083670559260 231 245 222
-0.0460569722451553 -0.1472771919291525 0.9584856604891219 64 41 7
-0.0439788645614928 -0.1469600796904403 0.9598277849621506 61 45 12
0.0336892661067029 -0.1601488889598739 0.9941015132375606 200 196 122
-0.1224409405411097 -0.2280507904285331 1.0634893268058465 47 38 7
0.0208261325960984 -0.1588114646715693 0.9857662787184494 80 67 25
-0.1143932095604813 -0.2295266400359089 1.0685186526410830 191 198 147
0.0489553488393491 -0.1619012158340741 1.0019716009981203 201 191 104
-0.0247436505986718 -0.2256603798076558 1.0967001254020303 113 102 46
-0.1557141302385159 -0.2244754422031960 1.0334286991523609 29 11 0
0.0967384802820981 -0.1641231057264062 1.0279407205500795 159 148 82
0.0769718770021138 -0.1632673933768524 1.0146653990334127 83 66 10
-0.2357278236431292 0.1129932852319337 0.7489812170812229 71 55 68
0.0263014445578875 -0.2300390080956163 1.1908398712361010 102 55 11
-0.0617214374433144 -0.1388200957731510 0.9347559299898915 83 57 44
0.0044710560946115 -0.2497265057114594 1.1320094195410952 138 110 45
-0.1499132266889996 -0.1881716312381217 0.9797840248328017 220 226 162
-0.0353364424148942 -0.2348813152896090 1.1154913368779067 189 187 112
-0.1882134016224820 -0.0492577590998889 0.9393794121724625 200 196 213
0.2367941206517058 0.1759528719604051 1.0150633115729641 72 52 28
-0.1385639830545162 -0.2215711838134955 1.0383509536760911 141 122 63
-0.1388143305620140 -0.2213021024748564 1.0388108854379587 141 122 63
0.1206221812085905 0.2343781115394787 0.9776006030387263 12 15 32
-0.1239917014568243 -0.2209111686351914 1.0510378018105888 163 147 72
0.0653983309417313 -0.2214589537110431 1.0988649823688530 69 37 0
-0.1419054859248756 -0.2200014555437373 1.0315122774406116 136 123 70
-0.3801085263926252 -0.2842062119995624 1.0278518902605376 79 71 69
-0.1459577449535608 -0.1998490522819774 0.9960833634094616 193 197 123
-0.0898285926573026 -0.1116512424305796 0.9140439666661387 225 237 189
-0.1185591643979757 -0.1880979161179099 0.9880288900576863 158 149 74
-0.0898285926573026 -0.1116512424305796 0.9140439666661387 232 251 205
-0.1273725841803343 -0.2187225685887440 1.0435637103748439 30 17 0
-0.1274338372325877 -0.2187073968438787 1.0436069080775359 30 17 0
-0.3102895376269154 -0.3149564164177035 1.0044155605658813 141 72 41
-0.0219240044381100 -0.2016241272479420 1.0467740922002517 204 224 155
-0.2078050751021204 -0.1999409342754215 0.9967354571114482 110 129 125
-0.0724700161660726 -0.1172828276638884 0.9160736414043720 229 236 169
0.0902342057455215 -0.1424241589896942 1.0016840986617843 175 175 177
0.0386779743759684 -0.2245300998844271 1.1796107221212981 121 73 27
-0.1488504804524925 -0.2172911282612282 1.0179826329670401 30 23 0
-0.0723163831100887 -0.1116149165552699 0.9110798363667707 205 214 135
-0.0649704817743137 -0.1118590570272623 0.9122597421459113 71 63 27
-0.0648724527222236 -0.1122725745247946 0.9122516663360090 71 63 27
-0.1566361206310109 -0.2143115393993100 1.0108349664873222 194 186 114
0.0692322293984841 -0.2211137693112682 1.0784416594172457 157 131 57
0.0692900213286078 -0.2210674090428472 1.0785920494085754 157 131 57
-0.1434569483490904 -0.2135960771049756 1.0194625937016539 46 40 6
-0.1434569483490904 -0.2135960771049756 1.0194625937016539 46 40 6
-0.0681204479929676 -0.1079659231993620 0.9074713610746329 215 217 133
-0.0995594611731740 -0.2138848484931022 1.0534686372416677 12 5 0
-0.0995594611731740 -0.2138848484931022 1.0534686372416677 12 5 0
-0.1573344609679352 -0.2108493282674420 1.0043110188190527 65 62 19
-0.1573459235226356 -0.2103813747133868 1.0048993323914288 29 22 4
-0.1186963144344940 -0.2127678226274072 1.0364892768311036 34 24 0
0.0626636232374913 -0.2156668002726956 1.0655236942257564 213 213 141
-0.1459304949021918 -0.2112054458478592 1.0116038147889195 37 32 3
-0.1459416568076007 -0.2113019835871592 1.0115732554155350 37 32 3
-0.1578406652535617 -0.2098834684356164 1.0029449622309969 193 200 133
-0.1327487242093476 -0.2125220907194232 1.0214529844554401 38 28 0
-0.1329281257311317 -0.2117935192713027 1.0217824903549872 38 28 0
-0.1086336230638434 -0.2113294939155822 1.0425771167739910 30 17 0
-0.1086774766151439 -0.2112687707741249 1.0426483833010820 30 17 0
-0.1266557946666176 -0.0542633728910319 0.9119996214094260 237 253 240
-0.0977372255029257 -0.2104367103286240 1.0493430429640986 158 152 94
-0.1037724450945300 -0.2102003154955884 1.0438400926993439 38 25 0
-0.0858857076569777 -0.1926212123007593 1.0245316353576814 71 60 28
0.0188142338937027 -0.2403101273023340 1.1037402358545125 58 51 9
0.0184424711459189 -0.2404686431664365 1.1044397711656349 62 54 18
-0.1298157276465873 -0.2094810924261057 1.0188943797258241 62 40 17
-0.1300404002418242 -0.2094215953629614 1.0188430502699257 35 28 0
-0.1014295857243030 -0.2078239577278122 1.0412242152595503 35 19 0
0.0083876103702308 -0.2332391618944556 1.0963554328566667 216 227 171
0.0256338635437769 -0.2382902923314595 1.1015724953325390 181 174 104
-0.3094908839108004 -0.0938256274601310 1.0262361539055529 143 75 4
-0.0961149994052756 -0.2065750902502300 1.0423136577129115 65 55 19
-0.0960069283777353 -0.2041600214728880 1.0390472239068265 157 144 74
-0.1031923446312081 -0.1708678806971265 0.9679458568059753 187 190 119
0.0736340285525068 -0.2237215707793394 1.1538467707031184 149 111 62
-0.0315382405283995 -0.0788140945435035 0.8932278372145760 55 47 11
-0.2122241005227110 -0.1661830602460806 0.9868487114480858 160 179 177
-0.0360519190623513 -0.0771607563359256 0.8901001138599930 190 195 128
-0.1947391675862757 -0.1779740297436360 0.9810761571671980 168 192 178
0.1164913003548854 -0.2371674507254479 1.1569288868921865 168 17 10
-0.1419547819216860 -0.1973321639930888 0.9922504918890469 27 21 0
0.0281614241739155 -0.2306103665416143 1.0869453331013990 111 103 57
-0.0957736406983894 -0.1989631451860261 1.0275210322312536 47 32 0
-0.1513833680964025 -0.1937291017005916 0.9858459718573858 48 46 7
-0.1513833680964025 -0.1937291017005916 0.9858459718573858 48 46 7
-0.1247537151086771 -0.1977421747906058 1.0015219979595040 30 23 0
-0.1247714294581870 -0.1975426780503094 1.0016174409412595 30 23 0
-0.1221340234510859 -0.1972279414768129 1.0020362701175898 30 20 0
-0.1221340234510859 -0.1972279414768129 1.0020362701175898 30 20 0
0.0539092734293015 -0.2287649922977270 1.1018502405387123 150 120 56
0.0752742029857129 -0.1932984653107096 1.0434753380556510 200 202 129
-0.1356515611538798 -0.1944962423369690 0.9899058913662449 193 191 116
-0.1047070415410809 -0.1954829357725344 1.0130728350616593 120 106 59
-0.1047070415410809 -0.1954829357725344 1.0130728350616593 120 106 59
-0.0606642015331611 -0.0509399729545518 0.8697687049195002 214 226 164
-0.0392793747195272 -0.2035628101190367 1.0540742764324442 204 216 142
0.0153317234252247 -0.2219878779730927 1.0725610956490643 216 217 147
-0.0835395867938689 -0.1923809213222931 1.0263401420446931 162 141 74
0.1166670259512503 -0.1846209689884188 1.0578647953717411 170 139 57
-0.2677298434721098 -0.0486931246144180 1.0043960730768358 193 52 58
0.0289579751731934 -0.2223035677760133 1.0714813359843398 124 123 75
0.1992535424591015 -0.0556344819458558 1.0075250202383073 58 56 57
-0.1152116793497141 -0.1904482551162943 0.9954361331873598 38 23 2
0.1101814955590571 -0.2282402966605097 1.1263821176452502 190 187 116
-0.0997800224168566 -0.1882507119949627 1.0047237568140883 152 131 64
-0.1139151454268061 -0.1689491665019231 0.9640616404145038 21 20 0
0.0400065031116374 -0.2217688808593555 1.0704612615827609 213 219 149
-0.1154320439176924 -0.1872878860416204 0.9878314961570236 29 21 2
-0.1154320439176924 -0.1872878860416204 0.9878314961570236 29 21 2
-0.1266245542270903 -0.1850000634815165 0.9801591013511582 197 193 120
0.0109812702136310 -0.2111950924366559 1.0551614409069463 217 222 155
-0.0702149354707671 -0.1700758694377242 0.9908465950648546 69 62 34
-0.1030969837510903 -0.1849356891827982 0.9958404727873363 30 26 0
-0.1030969837510903 -0.1849356891827982 0.9958404727873363 30 26 0
-0.1915392608021547 -0.0387907611797783 0.9377762420854749 196 191 187
0.0105662262984773 -0.2084672212111840 1.0502022462699179 216 219 148
-0.0538574838860108 -0.1861422215720745 1.0253433000117904 95 94 40
-0.0539788695613290 -0.1861796336724922 1.0252671470055890 95 94 40
0.1050678659452813 -0.2058835554888359 1.0638272168174103 205 143 92
0.0931951718539921 -0.1340234628139716 0.9971736361788530 91 92 97
-0.1172209199091323 -0.1810924253824370 0.9782433291052895 42 41 0
-0.1172209199091323 -0.1810924253824370 0.9782433291052895 42 41 0
-0.1092819170160121 -0.0760959835763765 0.9134361576157543 77 57 69
0.0306350071238096 -0.2118421479411373 1.0536295755218694 217 221 162
0.0307471016870572 -0.2112775422141054 1.0543381349177834 218 216 157
-0.1241211736249454 -0.1787507291685177 0.9722017361482815 206 208 133
-0.0987612078017363 -0.1790631736294969 0.9871256525563549 33 21 0
-0.0988577559021700 -0.1788947109913930 0.9872946561036056 33 21 0
-0.0917417787740995 -0.1597370072651431 0.9570769527623070 184 186 102
-0.0348536974184978 -0.1893880406810935 1.0236985707179209 202 216 157
0.0135889678848992 -0.1800735434407497 1.0092208474124253 207 206 139
-0.2147707729032545 -0.0813531701781608 0.9563080915269053 155 157 178
0.0344067167656985 -0.2070808399702615 1.0496109531146296 208 210 127
0.0573754435817834 -0.2119290422228105 1.0590595245105399 216 224 164
0.0890582474623964 -0.1839582484371828 1.0386540627409464 97 92 50
-0.0628186192416097 -0.0939858374272336 0.8949347635766570 224 232 155
-0.1632116386807843 -0.1052018715922314 0.9427109864377472 254 255 255
0.0973506547258050 -0.1765646505020418 1.0371483857315595 92 80 38
0.0786659849173325 -0.0974197350435555 0.9591590553673528 177 187 197
0.0523232753052065 -0.1614034039304658 1.0018525720275491 87 72 33
0.1939973543197924 -0.0759257070069668 1.0226424571946382 131 91 39
-0.0781785859515374 -0.1350217732983523 0.9320302156629237 204 185 119
-0.1905352145642819 -0.0513550159395364 0.9404059689706421 103 99 114
-0.0126007194848643 -0.1431014428551872 0.9594924094896133 170 153 81
-0.1849741548809487 -0.0475468562209695 0.9372294644164653 78 79 97
0.0843190358617111 -0.1328407100018878 0.9890124045827643 172 180 183
-0.0252217153998525 -0.0954151319422692 0.9102109867191350 192 206 131
-0.2351079455437782 0.0461791878723596 0.9144290031731994 248 255 252
-0.0411132117393048 -0.0904113995824702 0.8992311201690422 180 179 96
-0.1334202634019049 0.0211412303909302 0.8900366059610920 235 249 214
-0.2333846982594066 0.0828415135168672 0.8544067611487211 136 104 107
-0.2502464901861920 -0.2452086453931606 1.0885168466646253 29 29 17
-0.3159491842243230 -0.2991742985970555 0.9950523068231749 174 96 60
-0.1816734664513311 -0.2540356254312814 1.0712428786096744 152 136 61
-0.1461214239644279 -0.1489288839044941 0.9518759851755092 245 253 202
0.1599089681456591 0.0724098091928060 0.9451249178910994 148 154 168
-0.0494577321436580 0.1062399552127634 0.8515527877193558 93 91 53
-0.0039459694474789 -0.2246157475245916 1.2478176218257970 108 90 40
-0.2573490058565957 -0.0893894757049997 1.0816315276728636 154 47 13
-0.1931589732030248 -0.0326804113996373 0.9377485001122796 131 130 144
0.0251631547127102 -0.2099295799928715 1.0527212078440176 114 109 79
0.0711918966934814 -0.1804147054785110 1.0291075565067229 184 187 120
-0.3473766375500860 -0.3075442216259141 1.0146338579141059 48 31 37
-0.0532893876019414 0.1557215750173089 0.8525564766847600 119 108 80
-0.3956099121271386 -0.2594412590898929 1.0270792928712804 28 19 14
-0.2073376225894909 -0.0199251745684554 0.9407379017509043 130 119 115
-0.2073376225894909 -0.0199251745684554 0.9407379017509043 130 119 115
0.0393940324041283 -0.2330679619533493 1.0934748855459058 160 150 78
-0.3464996476771631 -0.3118521728821705 1.0166454673000052 153 124 126
0.1302977917257523 -0.1104050661711844 1.0009910528391435 151 163 175
-0.1494796716035243 -0.1965435890664800 0.9891895483307486 15 15 0
0.0211031063857907 -0.2288925630979691 1.0820653713460160 222 226 167
0.0378503816232258 -0.2315852811421416 1.0908394533431300 162 153 88
-0.3123367858766380 -0.3134688743068054 0.9913817930443287 74 27 17
-0.1930606520842283 -0.2788478653236416 1.1490876207849590 137 124 79
0.1191290813447847 -0.2339564162738078 1.1435555691855741 162 24 21
-0.2314163685474193 0.0739462658703620 0.8846578680107979 81 49 52
0.0978884990582637 -0.2296414001111594 1.1291534552369009 220 203 133
-0.1361016209528387 -0.2720697034876145 1.1790408796694016 14 3 0
-0.3105263754636494 -0.2898969568131283 0.9964927882564747 61 21 13
-0.0532935025487254 -0.0825049833543900 0.8864370711934529 191 199 142
0.0518540475471509 -0.2286025971712722 1.0958090358270205 151 134 65
-0.1799783551484488 -0.2738091837490166 1.1257338034287963 103 88 45
-0.1167769885879496 -0.1958889276009896 1.0037004315394127 149 130 71
-0.1167769885879496 -0.1958889276009896 1.0037004315394127 149 130 71
-0.2439232003040116 -0.2623446324207675 1.0774943151126644 96 91 69
-0.1267154884763802 -0.1952025282655242 0.9956558475528154 159 150 91
-0.0981128133798928 -0.2673926294303055 1.2011127592829203 116 100 51
-0.2360581760192758 0.0822636593955994 0.8693324645866566 133 104 100
-0.2535704567441677 -0.2447134057175745 1.0864352005444637 88 97 68
-0.1606456881026335 -0.2728795928806197 1.1293543371477164 100 92 46
-0.2527120755203210 -0.2428591148020040 1.0882292963890643 114 118 91
-0.1480748277282874 -0.2748337001783787 1.1389394835267146 16 9 3
-0.1458334859791312 -0.2735223071092293 1.1405866752009310 100 93 51
-0.1627648093087531 -0.2725281999650528 1.1237032961412883 139 122 66
-0.1370588049588487 0.0452022391668025 0.8835514029084168 92 65 56
-0.0542106013420812 -0.1936501132040089 1.0409190186151611 213 214 146
-0.0937453557871817 0.0016856647627640 0.8794013286894423 251 255 255
0.0268982676891157 -0.2219426386651623 1.0702817158686087 205 220 153
-0.1098746007603337 -0.1902569473174290 1.0006662668227979 145 131 68
-0.1549581642337488 -0.2620241424355274 1.1058968705238275 188 172 97
-0.1508409143866885 -0.2605058110143142 1.1056746604840459 179 167 107
-0.1109239195023956 0.0596630924770284 0.8736289103711589 64 55 26
-0.1592047809881637 -0.2553130821799459 1.0917130547952842 198 193 127
-0.1525156333929569 -0.2551712760873436 1.0927325009139950 40 35 5
-0.1526389668514671 -0.2553323512182709 1.0926210154681351 40 35 5
0.1347899532817565 -0.2235130699459005 1.1330364903211561 189 101 53
0.0344702490492747 -0.2181305483475253 1.0644794487014981 211 213 148
-0.1712771532189016 -0.2504850631777158 1.0771856488647193 63 49 10
0.0260186547869060 -0.2163168822578384 1.0581120333352820 70 67 34
-0.1683799972040422 -0.2499556672261870 1.0792857288731494 52 33 0
-0.1683799972040422 -0.2499556672261870 1.0792857288731494 52 33 0
-0.0181292653071310 -0.1999356937321979 1.0418606028730681 208 228 165
0.2160926185039246 -0.0190513518993100 0.9918603268247095 135 138 145
-0.1605505495209033 -0.2471168282504202 1.0794020378573674 29 25 0
-0.1605381327710911 -0.2476266087788139 1.0793015482193180 29 25 0
-0.1361344695406546 -0.2514561042078792 1.0940231124646211 174 180 108
-0.1856644586525688 -0.2470218008603004 1.0533826656696250 14 0 0
0.0997530291372375 -0.0062115978674416 0.9271513075607027 159 168 167
-0.1543590423415292 -0.2433291234759160 1.0743333757259046 183 181 98
-0.1454634542984317 -0.2450333209852280 1.0765984943939166 189 184 103
-0.1468206622657042 -0.2434714208529985 1.0753834180463488 195 190 109
-0.2635712216866015 0.1123983949134575 0.7915812291415960 48 22 31
-0.0317602589417037 0.2406559092867770 1.0861431390706560 170 109 62
-0.1685190008970823 -0.2411165264588251 1.0593835029888277 139 118 61
-0.1204335435797834 -0.2473191070536593 1.0909535553706364 196 192 105
-0.0441231890113861 0.0421865083170661 0.8574103285824954 217 231 154
-0.1558494205946008 -0.2404640229072556 1.0675753593251118 36 23 0
-0.1558865595137500 -0.2406530067240719 1.0673640127408708 36 23 0
-0.1429000924129101 -0.2407335468952067 1.0736977179377998 34 27 0
-0.1431080198370435 0.0443094583114435 0.7722753365607649 101 98 91
-0.1312276302752802 -0.2427862756781168 1.0810607634742868 195 189 113
0.1424490234487306 -0.2135708485017612 1.1216197721986236 163 31 18
-0.0240502462565584 0.0235240607446364 0.8559334623301331 167 161 77
-0.1385176893941495 -0.2154963718880510 1.0281034380843381 158 141 71
-0.2330926256343485 -0.2185622287660135 1.0171846158137328 236 252 252
-0.1657787400721743 -0.2369265633870020 1.0515019840464581 131 117 56
-0.1292865806908878 -0.2394360532522967 1.0764427719831597 208 204 130
-0.1626651569090987 0.1929930921063145 0.7645638383470666 36 25 31
0.0177459294523902 0.0578608248375467 0.8775233164821373 111 100 80
-0.1175639217137251 -0.1722945970362345 0.9674837376243679 222 224 149
-0.2352275808647263 -0.0497784151172139 0.9937939947302686 190 133 30
0.0802348779891467 -0.2230310392289540 1.1419999308756805 89 22 3
-0.1104488845489475 -0.2365969579705359 1.0790339731546914 211 211 139
0.0806219640213517 -0.2500820769387669 1.2141890361305090 173 19 19
-0.2322993371755045 -0.0650771665768771 0.9731931173611968 54 43 59
0.0414434718092268 -0.2278882612453113 1.1964756667537904 152 109 58
0.1158581088818592 -0.2127173958060465 1.0803429891600551 183 146 76
-0.1288500562222583 -0.2285028336279367 1.0612146577723804 9 12 0
-0.1618427804111189 -0.2277123107653451 1.0358385063729101 58 42 8
-0.1619722757164160 -0.2273783841630730 1.0360890017230064 27 19 0
-0.0060151528527545 -0.2499848228524580 1.1271049129151982 222 227 160
-0.1556077022898854 -0.2245238660602645 1.0334325855846511 29 11 0
-0.0169235246812332 -0.2016131179082929 1.0455602904850783 207 229 154
0.1161506142361148 -0.2047946436733023 1.0754822411425222 181 137 72
-0.0225735254610361 -0.1750750775558363 1.0035061524882425 40 44 29
-0.1166484312554581 -0.2216218840754860 1.0569501551507958 29 21 0
-0.1623977850729569 -0.2238083401834916 1.0202678847542390 37 24 8
-0.0433520753736843 -0.1657282249275440 0.9938143869252701 229 234 154
0.0667952486632015 -0.2224592038697766 1.1610358952309869 104 69 39
-0.1548447618327711 -0.2206708654650801 1.0253860618899184 129 114 55
-0.0203506411687050 -0.1918425902073745 1.0266942214880228 220 238 178
-0.2222543144467521 -0.1571582625678012 0.9950063526340176 255 255 255
0.1177320394587506 -0.1907053510709702 1.0634999765643940 185 134 71
-0.1565665087753263 -0.2139350968223101 1.0090750067394194 33 32 11
-0.1543962020745412 -0.2138259935832559 1.0106946037852538 178 171 91
-0.2182896976465361 -0.1811527192059607 0.9943783516000977 241 255 255
0.0508285087300506 -0.2291189097370684 1.1133272667174381 135 103 42
-0.0087807301156536 -0.1663558204070581 0.9895072921905623 222 222 172
-0.0026471542394598 -0.1856626191149900 1.0164559134715305 207 228 163
-0.0917659567814436 -0.2038899700929977 1.0403102376111835 66 49 6
-0.0917659567814436 -0.2038899700929977 1.0403102376111835 66 49 6
0.0174615730205042 -0.1900766249602572 1.0236838517423299 208 209 139
0.0442563312628790 -0.2339392069925167 1.1045464066916859 95 72 41
0.0145135875218048 -0.1664581025864654 0.9942090865805788 188 196 137
0.0145135875218048 -0.1664581025864654 0.9942090865805788 188 196 137
0.1501114380486565 -0.1705346092133914 1.0776330321286116 165 136 68
0.0610799202228473 -0.1713699322660076 1.0167461406473113 57 46 16
-0.1132642225921873 -0.1948671395618069 1.0038701098236826 135 127 62
-0.2200951724016825 -0.0359432431607719 0.9625289002472044 101 58 42
-0.1680946806760503 -0.0394758864297370 0.9288269221060734 206 215 220
-0.2290420905433730 0.0354205124853501 0.9309959828086009 255 124 155
-0.1274771635896829 -0.0544659456254146 0.9114545395859585 254 254 255
-0.0536805929108707 -0.0347037397127168 0.8634110620286326 204 211 133
0.1261295888237746 -0.1763908475776305 1.0580928253973829 182 142 73
-0.2205882651373527 -0.0049338969044302 0.9465602737786505 249 245 184
-0.0470645311708350 -0.1393422279806343 0.9416771786667437 31 17 16
0.1861805679334284 -0.1230918140662384 1.0625305181318014 55 29 16
-0.3817878434657632 -0.2660766744068733 1.0338779546424290 53 56 71
-0.1970579790174402 -0.2611752156280322 1.0756962321635899 156 132 70
-0.2548482836528285 -0.0634800314368307 0.9816063617794635 236 115 132
-0.0602318894423819 -0.0220684148715526 0.8546764870666346 172 185 106
-0.0282007314106690 -0.0278115447414973 0.8691025059339392 186 192 132
-0.1546897722422331 0.0506058086697396 0.7674951834910261 17 5 7
-0.3820558874634774 -0.2695171587874405 1.0335121587940483 61 55 67
0.1289002757281281 -0.1923769766977975 1.0768690552576263 171 139 64
-0.0231848532233173 -0.2158735184849007 1.0825604460087974 77 80 27
-0.1976470173172482 -0.0621100459285368 0.9913868609636346 110 81 85
-0.1673168977298891 -0.0961151934854048 0.9423681504400141 221 239 223
-0.2159930480147119 -0.0461464494823867 0.9528656770830769 200 193 200
-0.1363841686919915 -0.0506730759691556 0.9164530959025758 227 248 233
-0.1562135062462164 0.0458257814287981 0.7853052192128712 126 92 90
0.2840615776138884 0.0788055175992723 1.0000772511110316 80 49 44
-0.3425272080248231 -0.3125124440715630 1.0299700738561215 57 34 44
-0.2214591540934756 -0.2069355685969220 1.0057850146495531 233 253 241
-0.0466711124010460 -0.0378717990608210 0.8680038344446938 183 191 118
0.0811370377992787 -0.1489556900148274 1.0023785674724421 185 192 198
-0.1365638742417710 -0.1892373121291479 0.9817869543806031 160 167 100
-0.2486772403217501 0.1357074527777601 0.7253013021685094 111 75 79
-0.4021665756771175 -0.2498325039795321 1.0270451914988912 154 119 123
-0.0573316760359032 -0.1293617078706724 0.9287009084767297 204 211 141
-0.1645789917613259 -0.0749375137431487 0.9393359542573970 235 246 229
-0.3875447383617344 -0.2853176391701585 1.0333395529414648 161 150 158
-0.1663483241148981 -0.2447738696507485 1.0711206339804467 146 134 86
-0.2227342497368713 -0.2838129527102310 1.1197639376930220 139 120 64
-0.1642351578646352 -0.2423248371966554 1.0651520560318082 155 126 58
0.0075755736878812 -0.2318961183894024 1.1985744702292560 95 29 7
0.0876265422577312 -0.1739126470339945 1.0289466357041186 169 166 95
-0.2489880199040024 -0.1978891657218242 1.0370021542649663 236 248 226
-0.0154745567556598 -0.1534479532445560 0.9756168195933232 229 236 168
-0.1627488366125014 -0.2744203162785760 1.1621128524736062 13 9 0
-0.1860774680091164 -0.2371282159350521 1.0493633986004522 158 145 75
0.0809960447511338 -0.1659553436140566 1.0202707231600749 157 156 99
0.0293011608719637 -0.1938352456326602 1.0324843074886483 96 97 53
-0.0112989460690477 -0.1799889407535570 1.0084924150987300 217 224 154
0.0039644330790866 -0.1865105478689885 1.0139765629060948 54 54 26
0.0212224641768346 -0.1478203295958996 0.9742996035647876 133 107 58
-0.1650735040232109 -0.2732038451532242 1.1222944253446636 114 109 43
0.1404396592284794 -0.1943101696288828 1.0914626545473640 115 102 67
-0.0449324780461024 -0.2403222843509278 1.1253357020374268 166 179 126
-0.1527354165702400 -0.2302176064405348 1.0517869122721655 22 9 0
0.0460470414031453 -0.2280174001715742 1.1950900621918386 71 17 0
0.0460470414031453 -0.2280174001715742 1.1950900621918386 71 17 0
-0.2398142735008408 -0.2692699357827183 1.0630650231881760 151 156 115
0.0187167140899118 -0.2251527504541623 1.1736751792210087 34 17 7
-0.0048628300668389 -0.2527050782751135 1.1352422861522928 29 18 0
-0.1670386249089777 -0.2600709688649880 1.0952745415142560 119 130 62
0.0851358056572187 -0.2504656888846230 1.2015124689938008 192 42 25
-0.2372131269479202 -0.2684478859492969 1.0592130315097825 198 204 166
-0.0244114439136480 -0.2453432647604090 1.1266044575373588 236 245 188
-0.1597006065916813 -0.2279568530643223 1.0415321387275307 20 9 5
0.1351722590941758 -0.1316021975750812 1.0208308794944965 157 164 172
-0.2830787847652275 -0.0965586656786944 1.0501689393954174 233 53 82
-0.2392213334354631 -0.2652588426705502 1.0595944569322830 72 73 39
-0.1353399100740638 -0.2619858630547400 1.1117490958479030 132 137 70
-0.2375343524327731 -0.2405201837634648 1.0457869709869683 242 247 224
-0.0733177771780641 -0.2687330862338961 1.1830137831562875 58 42 16
-0.1298728720134080 -0.2272773953349554 1.0591117442882467 161 158 81
-0.0369438109926318 -0.2356784236645120 1.1146778086832134 24 28 5
-0.1380144638147375 -0.0013799949229071 0.9199662187877078 31 20 18
-0.0598515469059180 -0.1094048768141833 0.9092358084760919 201 199 114
-0.0349245332024513 -0.1106528543608662 0.9187755883527844 203 206 135
0.0896692133341742 -0.2468631976812631 1.1883586905213834 192 29 30
0.0503053689258262 -0.2235299831353330 1.1774360603349758 112 80 39
-0.0952133575702254 -0.3189681778877386 1.1048792992026042 96 84 36
-0.0557846933888347 -0.1030102958765927 0.9059914636940835 88 75 31
-0.1405842070039742 -0.2220595660264319 1.0389591333978661 24 12 0
-0.1405842070039742 -0.2220595660264319 1.0389591333978661 24 12 0
-0.0552705831375655 -0.1857076253273578 1.1234539798928027 178 159 82
-0.2273944547780747 0.0688645929517899 0.8853551768666245 124 97 88
-0.1436303247092395 -0.2329747554152956 1.0621383567708527 185 170 89
0.0105452910899618 -0.2274477796212026 1.1745175735874089 110 82 32
-0.1408571368530125 -0.2592787478660455 1.1055419367451431 25 26 10
-0.1408571368530125 -0.2592787478660455 1.1055419367451431 25 26 10
-0.0102602030912811 -0.2357584843054874 1.1132274807917986 236 247 191
-0.2903851428409974 -0.0929557537089314 1.0459161664441445 104 0 6
-0.0300918492978460 -0.1534348055649956 0.9756286397844717 201 223 151
-0.0539667635630310 -0.2607611233961753 1.1610729177887966 186 184 125
-0.1036343315811963 -0.2294035777942365 1.0710733899237859 174 186 114
-0.1200485165351659 -0.2140068160178295 1.0400069759301194 17 11 0
-0.1200485165351659 -0.2140068160178295 1.0400069759301194 17 11 0
-0.1172776984489398 0.0214660503949640 0.9038041103683305 137 136 72
-0.1046107284432213 -0.2118200553953123 1.0467736341680285 28 15 6
0.0709028567370361 -0.0861975836915994 0.9508479855545734 180 191 195
-0.1535099379216212 -0.2512410886667829 1.0857477934348871 6 8 0
0.0294740737069217 -0.1650203338376613 0.9976696845668549 84 83 52
0.0805962261561676 -0.2305225345557307 1.1545515898255712 108 72 22
-0.2330280308280161 -0.1751026892206315 1.0075434161088059 249 255 255
-0.1156870087145451 -0.2097463948867863 1.0335877044352924 21 9 0
-0.1156870087145451 -0.2097463948867863 1.0335877044352924 21 9 0
0.0925481797809538 -0.1691424064308674 1.0275654120132480 45 29 6
0.1734131358796424 -0.0751864051090933 1.0047655382211009 161 148 142
-0.1810132942160034 -0.2480827021501497 1.0623327361147410 51 35 2
-0.1796290377595097 -0.2477304450261542 1.0636450617108539 117 100 46
-0.1051323471201057 -0.2075284025186813 1.0357374552038188 25 12 0
-0.1051323471201057 -0.2075284025186813 1.0357374552038188 25 12 0
0.0482621628567559 -0.2419451248358459 1.2368366943132834 107 94 49
-0.0315703358033907 -0.0714251165651843 0.8885577104604773 202 204 121
-0.0590465732009284 -0.2539790435691274 1.1452685065220973 28 32 0
-0.1642771448298358 -0.2458202356771596 1.0730220446543117 114 112 63
-0.1021902875396797 -0.2028812668535248 1.0301002150185303 19 5 0
-0.0934672182074612 -0.2014714603485667 1.0376180149276335 23 12 6
-0.0692829655340488 -0.2028100532209462 1.0523010190582858 178 178 114
-0.1100801486089725 0.0255811482208135 0.8828274660848842 147 175 163
-0.0932083279704113 -0.2107619964219472 1.0508209520930676 159 165 93
0.0056900355121271 -0.2222969941932551 1.0757283295012452 230 238 178
-0.0940840248498937 -0.0849991112181068 0.9055302161453909 255 255 255
-0.0545970004679929 -0.0424510698816826 0.8655925374817016 209 213 126
-0.0297096515876141 -0.2526301337365879 1.1376806231236152 221 230 165
0.0057099051960125 -0.2265043129400986 1.0840623621969825 228 232 171
0.0716848337448492 -0.2151449406135696 1.1207821639936917 83 16 7
-0.1335976275324597 -0.0150369491308565 0.9108102827698716 221 245 229
0.1637564131624816 -0.1108811974047669 1.0300161081520443 113 84 42
-0.1267154884763802 -0.1952025282655242 0.9956558475528154 159 150 91
-0.0526838393494140 -0.1974157030062648 1.0463380468008405 186 197 118
-0.1633868054974883 -0.1813872913753425 0.9754785338684533 233 248 193
-0.0465104119272563 -0.1982454919361993 1.0460316949601185 213 217 141
-0.0849186190087650 -0.1901631144154157 1.0208858494578283 141 126 67
-0.1092155202597401 -0.1911560436783269 1.0020471714838783 26 15 9
-0.1092155202597401 -0.1911560436783269 1.0020471714838783 26 15 9
-0.1499132266889996 -0.1881716312381217 0.9797840248328017 220 226 162
-0.0129336307943417 -0.0942451051637258 0.9127623723626312 140 133 104
0.0661298136842360 -0.2208416241744591 1.0990961461707647 91 70 41
-0.2314134078522110 -0.0517058828759224 1.0070718530369218 132 52 45
-0.1516540244803785 -0.1816794432234675 0.9743076897852005 204 227 155
0.0047619563144316 -0.2498382259580104 1.1317076051372239 138 110 45
-0.2236449613644426 -0.2035697127860412 1.0044129300710762 249 255 240
-0.0169195704342621 -0.2018400402127607 1.0454633910174436 216 225 160
0.1419463282773961 0.0143991230330125 0.9451077699385046 196 207 209
0.0550026598772431 -0.2232581909315802 1.0752998026816420 47 34 0
0.1388866032693439 -0.2209192188945133 1.1303869130749546 171 81 46
0.0454608222857171 -0.2209251570047085 1.1725959364471985 106 22 12
-0.0306057630921961 -0.2324954270314756 1.1087689032165617 142 150 90
-0.1277938223835863 -0.1829860823639268 0.9761314048049614 197 203 131
-0.2120816834946623 -0.2023174673085397 1.0008593057633304 128 138 127
0.1041868556401056 -0.2194807242830278 1.1016862470902071 229 193 145
-0.0968230605736361 -0.1813112516710134 0.9938815859212725 35 22 6
-0.0968230605736361 -0.1813112516710134 0.9938815859212725 35 22 6
-0.0373674940580970 0.0684115249665750 0.8513769525077209 164 171 103
-0.1456170844704353 -0.2197969606521315 1.0295461502152021 96 99 52
-0.0732368211536338 -0.1772346220344060 1.0063146800155884 34 22 0
-0.0070550370164212 -0.0353080494986874 0.8825743461732479 170 172 109
-0.1338254881316469 -0.1737702339483848 0.9667198387738980 60 60 26
-0.0097052804720435 -0.1948444911882576 1.0297947921646871 220 225 159
0.1267632389120265 -0.2166604950941252 1.1059828608884006 157 130 63
-0.0308934490554248 -0.0164511667121891 0.8651144016290111 200 196 109
0.0935996447565869 -0.2120809802444535 1.0860688922117845 150 84 50
-0.0165542744099642 -0.1923149112370951 1.0246174448957623 209 231 156
0.0725089471805307 -0.2165845635930723 1.0676983111855980 67 61 27
0.0316048658410724 -0.2070253459390752 1.0459742243772963 211 213 130
-0.0330785242143569 -0.1838238373064204 1.0160563184465712 225 231 169
-0.0779091884032346 -0.1736877953474279 0.9947284522542702 36 18 0
0.0063311746110751 -0.2394020222065179 1.1062955299056221 228 237 172
0.1300760025080512 -0.2130586689656370 1.1022155541548082 156 131 75
0.1295441888637836 -0.2110252771115795 1.1014249367590740 49 14 0
0.1295441888637836 -0.2110252771115795 1.1014249367590740 49 14 0
-0.0376952938619853 -0.1799737855427480 1.0120440889712787 232 238 164
0.0008675113989173 -0.1929557678663743 1.0257264615437827 84 84 46
-0.0679989320285339 -0.1700161528422761 0.9959541426470766 29 21 18
0.0150266589436525 -0.1962184956943195 1.0317401283137742 40 34 10
0.0149878422001841 -0.1963267816631017 1.0316688052472283 40 34 10
-0.0388473512672704 -0.1771694079194213 1.0083663654308452 245 244 177
0.1043604480208629 -0.2118313294753484 1.0779170400139642 128 36 11
-0.2038306656730333 0.0721286693984082 0.7777018509068923 223 182 216
-0.0656525342973620 -0.1690208837237063 0.9942035635598852 38 24 0
0.1108209712288221 -0.2411087874823740 1.1617471105219104 211 168 38
0.0777843071748104 -0.2090357928564413 1.0585024885529428 220 226 156
0.1299426069162871 -0.2054820271461711 1.0938762137032667 176 144 71
-0.0673714192908763 0.1281576737397008 0.8564211968758151 20 16 17
-0.0270918442602155 -0.1767315423826116 1.0065018686920424 60 65 35
-0.2398318536395937 0.0763021181051457 1.0188583404749674 220 64 85
-0.0042153778646168 -0.1832134207515652 1.0135951084263730 214 224 164
-0.1704079248232993 -0.1138522726113446 0.9485593472344190 137 154 136
0.0148132214612173 -0.1885019252405467 1.0201964724128074 217 219 135
0.1031390742644841 -0.2068601082812898 1.0648726933204447 110 30 0
0.0544346102175833 -0.1945609386167501 1.0365734723993119 53 43 16
0.0544336651453225 -0.1943261690854094 1.0366958169457998 53 43 16
-0.0376965534227601 -0.1655446438723534 0.9914019823592907 225 228 159
-0.0329557907216596 -0.1668891719740813 0.9931256605208560 216 233 153
0.0977149266454298 -0.1969387184962503 1.0551964015721134 199 192 112
0.0666018187709392 -0.1919422794663194 1.0388275490996495 205 206 138
0.5232465334377625 3.2378939056764726 3.1862037121528632 115 84 30
-0.0034601006562881 -0.1645221721971059 0.9874306762644143 144 150 90
0.0577051550008216 -0.1715394802710147 1.0152287470204941 184 193 130
0.0576600616321093 -0.1720010657078007 1.0150794191917027 195 188 107
0.0184963291240669 -0.1714850575579486 1.0014127446232473 52 52 26
-0.0203773649600694 -0.2049620201434308 1.0548138943529857 220 231 165
0.0463418743867867 -0.2280231027009837 1.0840618148285126 162 173 107
-0.1954251296840128 0.0116322964502178 0.9447182485654889 80 66 79
-0.1777493083868323 -0.0326087573779843 0.9305899292497488 115 112 121
-0.0465377145083847 -0.1407940022715146 0.9434799708289361 116 92 48
-0.1515965958969836 -0.2191097665127145 1.0228011409531077 147 136 70
-0.0155132511660248 -0.2003697060894096 1.0395327713637608 210 222 158
-0.0258440378695211 -0.1920126282121435 1.0269046796315724 198 220 147
0.0495639132869373 -0.2136540818743549 1.0614825880850516 196 208 146
-0.0348862596036665 -0.1857419093168548 1.0190599812755941 224 227 174
-0.0491167097048385 -0.1780020766351492 1.0108999346787402 230 250 189
-0.2731157552968252 0.1181876797765541 0.8062647671163609 80 66 66
-0.0221730239670593 -0.0263523569477120 0.8717774439972416 189 189 99
-0.0634975189315694 0.0966563138996414 0.8604605986835749 5 8 13
-0.0419411903984373 -0.2611281551733917 1.1645798785032728 44 36 17
0.0439817547518922 -0.1745532521724651 1.0131796356236000 183 191 131
-0.1598355778837021 -0.0415492003918887 0.9332977374128725 123 111 121
-0.0460199710113726 -0.2601797185369014 1.1756307615119459 17 8 3
-0.1114230916802330 0.0225103973871566 0.8885810221191279 239 255 245
0.0874833653473372 -0.2418008064726388 1.1801968874863145 137 28 25
0.0204299323346250 -0.2219658725717944 1.0713905447948988 78 85 52
-0.0056758548477458 -0.2101607567827429 1.0593250062985833 225 232 165
-0.0758465771052094 -0.1803877115368031 1.0105809193634632 34 21 5
0.0201052911778432 -0.2182147774670002 1.0648500288217166 17 28 0
0.0433111018033880 -0.1921096123562066 1.0327614732585917 70 66 28
0.0212859086791192 -0.1786783692591498 1.0105672397660213 195 201 165
-0.0798628788266560 -0.1682846094738212 0.9823788702809787 129 113 54
-0.0800824431660920 -0.1674757879677703 0.9828269991372003 129 113 54
-0.1653387410975232 -0.0471600488315911 0.9256625402174616 154 162 173
-0.2440172928247651 0.0897235591507962 0.8904846760659274 111 90 87
-0.1406949512619114 -0.0528008947180209 0.9254263287110048 243 255 239
-0.1421003209432995 -0.2231062859622266 1.0422794250074956 152 134 68
-0.0687339891822724 -0.2646810076030344 1.1825196435656549 58 48 23
-0.0991157293746420 -0.2362887623343340 1.0808695429105559 175 183 110
-0.0198045076981305 -0.2148135779197758 1.2306812328132399 35 16 0
-0.0203502900067380 -0.2170341490859430 1.2297127633761562 35 16 0
-0.0330879438197017 -0.1958971731315129 1.0337794256073141 206 226 163
-0.1557180580122221 -0.2748980619097540 1.1627276766028136 106 88 48
-0.1986491489532266 -0.2744646128296886 1.1081855331683932 120 103 57
-0.1660570949153231 -0.2484679049734417 1.0787076457740561 119 118 61
-0.2051694493382506 -0.2687654015087313 1.0923936278932684 123 113 54
-0.1597280602184421 -0.2687024098812412 1.1213165859361471 157 141 82
-0.1597280602184421 -0.2687024098812412 1.1213165859361471 157 141 82
-0.1505316643706284 -0.0361633208073038 0.9174011280885808 213 227 228
-0.0376489129384782 -0.1755821504405157 1.0065316331993919 238 240 177
0.0284947946406023 -0.2278545969987589 1.1844581388029323 96 20 6
-0.2247199891484187 -0.1674777767340496 0.9984546548047127 127 142 135
0.0071308887949641 -0.2312517133614470 1.1954860946882973 116 81 41
-0.1449186791274086 -0.2248768773076593 1.0446902760238337 157 139 75
-0.0823713796029752 -0.0122268682568370 0.8628906953157314 61 56 60
0.0842226874455900 -0.0413183589457005 0.9334557073203243 29 33 36
0.0959884792481802 -0.0344795164845608 0.9387979472622436 176 190 199
0.0954614608979018 -0.0358844131938589 0.9382120131206114 176 190 199
-0.2220763228304027 0.0825761173731244 0.7865284224687853 33 24 27
-0.0144946456641522 -0.0172593235383331 0.8728024865144617 184 173 94
-0.2181048096918260 0.0639004912300963 0.8570620922913539 79 44 50
0.0110980350229522 0.0146277727239691 0.8812902482679108 127 116 62
0.1049622791295077 0.0181716815256777 0.9218986437190827 170 174 177
0.0297617230468942 -0.2400026027796587 1.1229820325954341 145 113 54
0.2166031713170415 0.0055843804457136 0.9778573963949803 183 193 195
0.2195447669142338 0.0333292925882429 0.9735842371202253 185 196 202
-0.1272584983879519 0.0639326431359755 0.8772466259124031 118 109 68
-0.0391660408664480 -0.0180308611558877 0.8624856689656085 196 196 110
0.0321202405173321 -0.2356597337925012 1.0987846502251855 152 134 70
0.0321202405173321 -0.2356597337925012 1.0987846502251855 152 134 70
-0.0118290148131547 -0.1922554161407434 1.0268022858051657 201 218 150
-0.2193315384508617 -0.1488295428897431 0.9937391586878567 247 255 255
-0.1286404050880938 -0.1961383735554440 0.9981536377569684 158 152 90
-0.2377896647606663 0.0580286760585888 0.9548200108035362 239 240 222
-0.1219549294123177 -0.2049444079363419 1.0186841663829442 151 130 65
0.0861143964307467 -0.2177297704448628 1.1180489914788165 98 20 7
-0.2424109687454797 0.0906433856093709 0.8421385730816664 94 74 85
-0.0510412417238672 -0.0204541138515316 0.8594905226673136 203 205 121
0.0946023506200319 -0.2106781579332961 1.0812728358322574 137 88 47
-0.0450006632863073 0.1163605704647126 0.8487039150486628 12 9 2
-0.1906139861015566 -0.0516110530160895 0.9403653851501506 77 60 79
-0.0488016755149054 0.1133747504247407 0.8501337090784712 86 88 51
-0.1260096844129556 -0.1997655813920252 1.0036198170347752 143 132 66
-0.1579494144458142 -0.2570913119079739 1.0926113205146868 160 165 99
-0.2272197159335507 -0.1881141799930322 1.0031820082738316 244 255 251
0.1337885460666052 -0.1931137295254013 1.0828954582402877 170 136 64
-0.1907055002451510 -0.1143370064079457 0.9605956123000203 252 254 249
0.0811654787015542 -0.1765167509729388 1.0305445745279580 171 183 119
-0.1409367971489161 -0.0435084925846099 0.9145711137905089 244 255 254
-0.0576603999196404 -0.0888465219151559 0.8925344435603600 226 247 170
