ply
format ascii 1.0
element vertex 698
property double x
property double y
property double z
property uchar red
property uchar green
property uchar blue
end_header
-0.0525530462538015 -0.1653959121366103 1.1268707378415679 144 139 120
-0.0416517073410325 -0.1658038604146430 1.1301261586320237 142 135 116
-0.0416517073410325 -0.1658038604146430 1.1301261586320237 142 135 116
-0.0393558961894617 -0.1666022759926784 1.1285316768777787 52 23 17
-0.0393558961894617 -0.1666022759926784 1.1285316768777787 52 23 17
-0.0252854469637229 -0.1665441817194444 1.1310367247612387 142 130 108
-0.0252854469637229 -0.1665441817194444 1.1310367247612387 142 130 108
-0.1512726573690086 0.0368385562350396 1.0905996749401663 199 146 152
-0.0384352211823148 -0.1675311556482379 1.1302599934920696 140 135 113
-0.0189250640239678 -0.1674765310061851 1.1314293094624828 88 56 45
-0.0580536767477095 -0.1676939972078766 1.1239440968178442 71 58 41
-0.1572789445566645 -0.0047092417869335 1.1538685542579576 252 252 190
-0.0569900035174338 -0.1672591618781045 1.1219811062092373 71 58 41
-0.0330751877063553 -0.1680390656524545 1.1273887853722127 134 129 110
-0.0154210297830906 -0.1686514981990543 1.1305588860274429 92 52 42
0.0233218102910539 -0.0457097396760838 1.3100670560994432 145 70 41
0.0791917582049349 -0.0505385720984685 1.3257778407288214 179 120 80
0.0003338855464251 -0.0504456905817240 1.2986804684843698 149 51 38
0.0393731702153185 -0.0605685467221269 1.3091606410819610 149 84 54
0.0302996256605124 -0.0595378359635008 1.3111495678114868 110 44 28
-0.1698154109522371 -0.0168031893598657 1.0820120319587687 151 128 74
-0.0518145866171983 -0.1523915228027177 1.1566889929079338 137 122 99
-0.0470109182121723 -0.1536318791676736 1.1545500692405537 131 124 98
-0.0905688198574231 -0.1443895612913111 1.1529668884212023 107 102 96
0.0113051945392619 -0.0856897436832683 1.2786327958895831 117 40 34
0.2138237049770585 -0.1344243357687893 1.1793102010673640 113 106 98
0.0613388213198972 -0.1424714526439545 1.1651629414268367 80 33 23
-0.1616308333583288 0.0193238894264868 1.1270568757089774 249 156 175
0.1994577855475911 -0.1409589443949919 1.1599978396867459 109 102 92
0.0348677728732283 0.1739272689071809 1.3631825530369495 47 41 41
0.2038928152147040 -0.1413607021558020 1.1585963239436310 38 19 23
0.2038928152147040 -0.1413607021558020 1.1585963239436310 38 19 23
-0.1670116042936204 0.2230440875454860 1.2482124192397310 191 193 156
0.0461794084652807 0.1802432502065054 1.3713567413400469 94 73 70
0.0613780253789112 0.1691345966944825 1.3808498947946868 167 152 133
0.2056011819919906 -0.1436005284050990 1.1560006396596201 112 103 96
0.0059884559292583 -0.0419648998950449 1.3079098664849265 180 128 91
-0.0611645024012308 -0.1564913726932094 1.1448871994714280 130 122 101
-0.0475324278178833 -0.1568384700476107 1.1493791619829383 52 21 16
-0.0467658005818522 -0.1562914015657181 1.1480498619991706 52 21 16
-0.1603832212059548 0.0163623094693350 1.1338849103912452 255 255 174
-0.0791672376889355 -0.1569220008962862 1.1367510198847914 118 108 98
-0.0675739795023867 -0.1573446356903432 1.1394118576786849 111 108 91
0.0538718243532189 0.1734062931918837 1.3771458378420558 175 164 146
0.0395938322526212 0.1727128096889913 1.3679480978344363 105 86 82
0.0395938322526212 0.1727128096889913 1.3679480978344363 105 86 82
0.0462544728523939 0.1640456706120124 1.3707464172056674 147 134 126
0.1255366983718296 -0.1168705824441281 1.2456316603766666 52 42 15
0.0481933090528300 0.1738934597253489 1.3719506696083503 173 161 147
0.1255366983718296 -0.1168705824441281 1.2456316603766666 52 42 15
-0.0070326080691971 -0.1275515320652480 1.2185397822960560 95 36 30
0.1969852902885106 -0.1491182139989381 1.1522097291317355 113 106 96
-0.0534922465496754 -0.1597708100732894 1.1435051427501473 148 138 113
-0.1485544212557429 -0.0105588831701695 1.1476973693739438 255 255 193
0.2125617304864339 -0.1518658050229755 1.1546860040738640 115 115 107
0.0531855584154294 0.1546210195292187 1.3754579748019760 55 40 45
0.0549127396931486 0.1532795853113812 1.3772712634575168 166 152 139
-0.1495392062932218 -0.0171618868981635 1.1483243543047605 169 102 109
-0.0547576918527343 -0.1619487063596883 1.1353011596517835 139 136 117
0.0269117312980366 -0.0902946284174533 1.2752354367743239 119 78 74
-0.0591763509270480 -0.1637009346652807 1.1292898742864061 51 21 23
0.0257947906380568 -0.0913459506651426 1.2761231157313264 119 78 74
0.0162229293126403 -0.1651804742812145 1.1354603123949860 141 124 106
-0.1547188826601411 -0.0200633087748302 1.1285609429300407 255 255 178
0.0583072813432349 0.1505398254519377 1.3787818839237889 159 145 136
0.0470642714362401 -0.1110564946525707 1.2511504315486290 114 43 25
0.1334364336835337 -0.1225598235195488 1.2478489982559764 137 95 53
-0.0689293080163994 -0.1457809462229281 1.1623380165975807 134 123 103
-0.2019923692454558 0.2196496422619058 1.2362736218606234 178 194 165
0.0362609710467021 -0.1355155269237985 1.2056937821963982 151 86 66
0.0482069365331903 -0.0260187121813417 1.3291991847568505 83 37 37
-0.0883537410397046 -0.1469855906218197 1.1513044867839128 120 108 96
0.2032524251400821 -0.1331674478184779 1.1727527391609582 93 82 76
-0.1520615168677653 0.1587099037339950 1.2727310649231880 217 154 145
0.0451642548011274 -0.1643304750143811 1.0997092808732205 41 18 12
-0.1009016771669798 -0.1821385313037629 1.0717256425143717 7 14 22
0.0474097450391121 -0.0964632727471541 1.2767992459044859 66 28 27
-0.1012389276325551 -0.0764512919437069 1.1860371047622118 233 238 206
0.0092613245880115 -0.1223103916802735 1.2328413698368927 141 106 68
-0.2276967403561547 0.1562239865103451 1.0807723662682829 148 172 196
-0.1995642383769958 0.0903189628534029 1.1770104798253811 220 197 156
-0.0823098478154298 -0.0929786934696317 1.2247246167485433 175 168 124
-0.0053956523398152 0.0207880003658029 1.3307562568407147 167 144 77
-0.1669712895657083 0.0813057582184233 1.1079162539032164 255 254 48
-0.2216510232814953 0.2108624273117669 1.2223291230722630 184 51 68
0.0504527781647117 -0.0538131838941526 1.3190689582510315 174 145 103
-0.1273373695392506 -0.0110293015433436 1.2309406763117188 189 147 135
-0.1450904458786502 -0.0358993917953467 1.1522232350830268 226 78 104
0.0725304537489479 -0.0289349287304273 1.3359021752775340 158 51 43
-0.1793968923968709 0.1930198641640141 1.2528696775741948 133 38 34
0.0133543817402865 -0.0728157745271011 1.2931007369460510 176 102 53
0.0840807991996027 -0.1070264798230614 1.2691457618801183 71 27 24
0.0476153951089054 -0.0359072442930104 1.3253383138477779 169 101 66
-0.0924907452207279 0.1094070202467079 1.2956268772691464 175 116 72
0.1368763427298599 -0.1182363286563191 1.2440506510953517 116 70 34
0.0324667001574543 -0.0898868924389178 1.2838465541056419 152 66 43
-0.0431248686926728 0.1025221968348601 1.3283541971095323 65 45 47
-0.1600493866531884 -0.0179689531946940 1.1127495829814824 189 34 50
-0.1811398336735588 0.1049473890766267 1.2408910746969282 140 144 147
-0.0913462772792715 -0.1742223110727825 1.0948560755987837 99 87 87
-0.0345788679672244 -0.1293494972829541 1.2026432390428432 141 39 37
0.1253128171476882 -0.1126224308370655 1.2770493133102674 110 84 57
-0.1010246716009681 -0.1625698067799733 1.1067118997941454 93 35 50
-0.1635601200337829 -0.0139068877316155 1.0697234032073972 251 252 112
0.1168481393277528 -0.0781942223187486 1.3179788270366322 141 104 51
-0.0495833357231812 -0.1115438264051054 1.2215889349034867 147 100 94
-0.0495833357231812 -0.1115438264051054 1.2215889349034867 147 100 94
-0.0450542813297421 -0.1250258602546559 1.2065535104518372 171 114 85
0.0537424218456137 -0.1205949409139643 1.2260014546948981 159 114 73
0.1116824119498240 -0.1209534502280519 1.2470117722679097 150 129 64
-0.0115807795906478 -0.1268372763423531 1.2190378241166790 97 47 36
-0.0378501004644370 -0.1135197796676933 1.2257635291084801 166 134 96
-0.1305310169000863 -0.0187963338056759 1.2253156754093739 223 216 187
-0.0432163894179247 -0.1138600584534551 1.2219129679495409 171 127 100
0.1162521511093885 -0.1221183481875989 1.2430253743734043 42 30 16
0.0903184374969336 -0.1114469795151494 1.2649238982526612 169 105 78
-0.0436750987423733 -0.1142889720027779 1.2208225126065242 120 60 50
0.0529051316180920 -0.1201309081488945 1.2139940922221906 89 23 1
-0.0862590570690422 -0.1112703877499388 1.1958526678495633 232 224 177
0.1190642979795700 -0.1218587231360289 1.2424802922408877 148 124 50
-0.0303445284508218 0.0331367370167014 1.3207799511955911 167 116 69
0.0826114893783492 -0.1134830773322009 1.2612714299679006 154 100 64
0.1152202482885090 -0.1228260336607300 1.2416321296753769 155 127 54
0.1141528341308397 -0.1237899426440235 1.2406259811660714 44 16 0
-0.0577639966541209 -0.1158702123344886 1.2112287019140626 122 77 48
-0.1429545183798553 -0.0148659402101363 1.2063968337259239 174 187 196
-0.0962172550165938 -0.1235482061376897 1.1678172690486732 208 212 211
0.1255538374006869 -0.1240475896875560 1.2394800179189662 44 27 9
0.1270605506670603 -0.1245112715529248 1.2395717040224863 149 132 80
-0.0148622685024416 -0.1199537909167015 1.2275964962344237 93 57 35
-0.0320281752237147 -0.0338187680158408 1.2929563080563753 111 30 36
-0.1813560409262675 0.1901011640993453 1.2552516882352198 97 22 17
0.0484247654433930 -0.1163450950789234 1.2354565829489603 115 65 32
0.1222861814990462 -0.1260817751537566 1.2357208031269322 25 9 0
-0.0749718687285204 -0.0337329033995980 1.2694044390321597 106 88 64
-0.0714812735869976 -0.1193292225171817 1.1987624776391381 131 108 67
-0.0026632220410491 -0.1238134336682968 1.2283709684505335 146 104 90
-0.1078842805923624 -0.1218698511783247 1.1430656345649313 138 88 115
-0.0221846768729067 -0.1333327814959172 1.2026918886963356 171 108 75
-0.0918540129404806 -0.1179044618848951 1.1794580047062211 191 185 135
-0.0028800638540976 -0.1243304501621337 1.2268248857795436 73 24 20
-0.0769304892602715 -0.1317298500671449 1.1759486016823091 134 108 49
0.1211829813117626 -0.1181109651944538 1.2505922531586704 145 120 66
0.1211829813117626 -0.1181109651944538 1.2505922531586704 145 120 66
-0.1806470886045936 0.1791883627601536 1.2582213916319003 133 51 53
0.1249652049457620 -0.1282568456749862 1.2291873611440214 25 17 4
0.1091272451194558 -0.1198277481271842 1.2481483995096860 172 125 79
0.1217626022044999 -0.1286099729509313 1.2259791132277249 125 112 59
-0.0133719511242469 -0.1355766457698672 1.2014176364051263 166 107 77
-0.0090442128011160 -0.1267900600134169 1.2203127229248059 152 111 91
0.0318907858509210 -0.1369293324907358 1.2100199099150877 172 104 83
0.1225255322848996 -0.1202618893056849 1.2455502464141288 48 33 10
-0.0790105349660954 -0.1363201497128909 1.1728673863157186 176 156 95
0.1321315770321351 -0.1217730904685161 1.2504649553476581 106 52 28
0.1131230595962457 -0.1221819273594768 1.2444971305557755 157 134 90
-0.0650974899007728 -0.1262581640981656 1.1934718722459665 43 8 6
0.0581106854672270 -0.1242474760107412 1.2273190170340325 159 130 90
-0.0570875344975506 -0.1386072212862796 1.1780960277115442 116 57 25
-0.0237764173188512 -0.1284854259485320 1.2099222035718240 179 94 73
0.0073670056237102 -0.1294561819884823 1.2220120278911426 175 129 106
-0.0104159018674375 -0.1295985966416884 1.2135866567896443 172 106 84
-0.0629918574911964 -0.1283943363887371 1.1915319401402753 65 18 12
0.1667557874367437 -0.1215841866772758 1.1841937474434769 110 93 47
-0.0113980950208082 0.0207082649290589 1.3276547258791496 138 84 38
0.1210978030063820 -0.1239578412312495 1.2383083802667001 142 97 55
-0.0684155713096573 -0.1278009856095917 1.1843139214397791 109 59 34
0.0063046846182446 -0.1426109671165235 1.1953468864016910 167 79 75
0.1252990164392704 -0.1245672451778832 1.2381315683267711 132 107 41
-0.0714220553772684 -0.1410481088290894 1.1675275340280040 100 55 26
-0.0833114840525693 -0.1288647469425898 1.1793789232166372 145 132 77
-0.0714220553772684 -0.1410481088290894 1.1675275340280040 100 55 26
-0.0833114840525693 -0.1288647469425898 1.1793789232166372 145 132 77
-0.1090733553871142 -0.0385640967552589 1.2374280665215223 249 230 200
-0.0186066832541343 -0.1327741892002272 1.2052315584738507 160 97 64
-0.1076060013097838 -0.0394216316021888 1.2385199799731756 255 238 211
-0.0744791883367340 -0.1429300955552031 1.1632206612651894 157 146 128
-0.1086983580128848 -0.0397019578532092 1.2366871192093998 255 238 208
0.2045514279619626 -0.1309326914471880 1.1959960948736317 96 91 85
0.0902494382585905 -0.1279506563645544 1.2232387362320873 114 48 22
-0.1466247545943286 0.1482275714756502 1.2762585523405385 28 27 6
0.0364133976228800 0.0082242466533981 1.3394100255405912 140 60 35
0.1206581254788037 -0.1275810026327123 1.2310910415306620 27 13 0
0.2038084025919198 -0.1307036026506511 1.1863968620581271 95 86 81
0.1241650236047529 -0.1274699360630041 1.2309196754631835 146 126 73
0.1203582132522975 -0.1276907359564703 1.2290925925269349 140 124 75
-0.0970324891205379 -0.1295685628695300 1.1618971697109319 133 40 51
-0.0730566175623606 -0.1477875545876974 1.1556692989821800 145 134 114
0.1313661691080880 -0.1283493897975823 1.2306673225545293 131 127 82
-0.0396249283288646 -0.1349161590638682 1.1921599960703833 167 110 80
0.1163087583277775 -0.1282729616070364 1.2204868263249338 141 118 64
-0.0375875995980414 -0.1360706947453050 1.1900195198858321 103 61 23
-0.0467559498557899 -0.1514823004339577 1.1573623175102994 156 126 102
0.1077909398587511 -0.1283266647247805 1.2116067685963825 30 4 0
0.1935707058046920 -0.1364323008784920 1.1632306467398559 36 25 29
-0.0861470498898005 -0.1362762195129611 1.1676980831117623 65 40 36
0.0105561377732134 -0.1551022622974473 1.1743725918776813 64 27 18
-0.0788903753757164 -0.1379309181014264 1.1709346006679124 177 154 112
-0.0788903753757164 -0.1379309181014264 1.1709346006679124 177 154 112
-0.0613457175008745 -0.1553687255248525 1.1461342399590160 148 136 114
0.0158978876472237 -0.1578532242556036 1.1662099157143575 166 149 97
-0.0356179474464516 -0.1575144389911135 1.1503449032188613 152 134 120
0.0176221484279998 -0.1594967935366471 1.1600738006084128 165 153 103
0.0217317580388867 -0.1595967953537636 1.1603872837050997 154 147 95
0.1879236440055611 -0.1460363535141342 1.1463080714600138 51 33 31
0.1473167167687244 -0.1205803780086832 1.1771070882274934 100 87 34
-0.0677107640826680 -0.0083906108414308 1.2857158722652433 185 141 114
-0.0773595142625716 -0.1399950099991613 1.1677854777799421 135 38 32
0.0362008880645702 -0.0582579750480349 1.3117460680731192 116 53 35
-0.0012479860157708 -0.1628990348873446 1.1471708614635059 71 34 25
-0.1716452100308504 0.0470020007627722 1.1373310583578726 225 164 146
-0.0526171903632649 -0.1630020194731514 1.1337689038799819 43 29 42
-0.0456724330234106 -0.1416460372184303 1.1752080000951461 123 61 22
-0.0129691159308780 -0.1637779141936125 1.1420725353489156 154 141 124
0.1850699489455785 -0.1530995462623793 1.1426893363824338 51 31 30
0.2054399617229762 -0.1288636585544654 1.1961988485990804 23 17 17
-0.1864365897125976 0.0623755629017003 1.1749149520539555 255 255 198
-0.0781583980347757 -0.1443856609911948 1.1586022069130200 144 125 111
-0.0057302312384703 -0.1641197437115831 1.1406034041925246 134 119 100
-0.0644330837634112 -0.1453806907182152 1.1639263396746924 146 125 104
-0.0644330837634112 -0.1453806907182152 1.1639263396746924 146 125 104
0.2015704313889997 -0.1306693627228178 1.1861331402996136 21 15 15
-0.0613294849983971 -0.1463917914027940 1.1631401064272242 154 121 90
-0.0069748704583270 -0.1467770620128539 1.1794254784509650 152 127 73
0.0172805452391554 -0.1486527161800730 1.1901946667670342 161 94 85
0.0060569125072515 -0.1653715290381542 1.1359599561355758 66 38 34
0.2060575206508846 -0.1319152632114045 1.1840601402882860 40 30 29
-0.0563272492195831 -0.1477318135769167 1.1605778236978430 154 122 97
-0.0612291326126091 -0.1476796812422600 1.1585236181260574 147 131 105
-0.0181059641742768 -0.1669058857503318 1.1300108262850708 88 56 45
0.2026878010691202 -0.1327995122759361 1.1777200648729838 38 28 29
-0.0822578724945080 0.0180650474397555 1.2873510486780624 164 129 75
-0.0062056188561497 -0.1667180149489361 1.1307329555451837 69 32 24
-0.0524420586726277 -0.1493907057240206 1.1596201678094356 153 123 97
-0.0689547188825272 -0.1496927129441394 1.1544490619024852 142 130 108
-0.0921480865225667 -0.0596214818785130 1.2352461685373042 208 166 152
0.0165598207123021 -0.0676530892217497 1.3009651558727471 141 64 58
-0.0628532079922516 -0.1507090534930767 1.1546530131465660 139 122 102
0.0065036637129411 -0.1520859570105231 1.1767241574682876 72 44 23
0.0002487666449253 -0.1674278544617690 1.1292612419788544 136 119 101
-0.0256780723698977 -0.0669238051896717 1.2788133917689064 199 115 115
0.2055424656190721 -0.1354525012774209 1.1727735264099621 60 49 43
0.0079992963317275 -0.1671077849083716 1.1271757735286034 35 18 8
0.0079992963317275 -0.1671077849083716 1.1271757735286034 35 18 8
0.0049677780988232 -0.1675477563936826 1.1272577164717590 144 131 112
-0.0582228041271777 -0.1520945832213566 1.1522832897055970 139 126 110
0.0028995393419065 -0.1548628540892671 1.1737723295335294 92 68 20
0.0105191179165426 -0.0203050140564788 1.3193159336366660 120 85 45
0.0090550226972613 -0.1557034990776209 1.1695644966134564 155 135 85
0.0090550226972613 -0.1557034990776209 1.1695644966134564 155 135 85
0.2147868220696024 -0.1410254928027703 1.1687321563955104 67 56 52
0.0126461915664710 -0.1556742026316113 1.1692302852713967 144 117 62
-0.0370529472499543 -0.1692428194743816 1.1196689871874685 55 33 19
-0.0928824598805462 -0.0607336983379577 1.2277175146565926 223 201 180
-0.0402101342592238 -0.1559965204309169 1.1520169980331121 152 135 115
-0.0627239162769654 -0.1555724642451524 1.1436844984167078 57 30 21
-0.0440055518904090 -0.1701944603126189 1.1163131744502002 94 75 58
-0.0923326188741058 -0.0615387582979124 1.2283686804114426 255 251 231
-0.0923326188741058 -0.0615387582979124 1.2283686804114426 255 251 231
-0.0264604465812235 -0.1709293579617554 1.1159428447869055 142 134 111
-0.0356034349958613 -0.1580117682132543 1.1521357990817986 83 36 26
-0.0303270095636841 -0.1710953386015791 1.1099751528090080 92 75 57
-0.0516204705965068 -0.1576102190326850 1.1415015877698884 146 134 110
0.0531734634625948 -0.0706006299092394 1.3096720890245668 119 44 21
0.1894641790287400 -0.1449627536865548 1.1477208078285328 49 30 34
-0.0212497953435874 -0.1595667612688322 1.1497929761047534 113 58 28
-0.0127194223763405 -0.0242461859256116 1.3072239059318866 153 120 85
0.0685592870155452 -0.0699997012942064 1.3125288793804120 107 49 25
-0.0616719303060424 -0.0717037873267738 1.2528558685591380 183 112 84
-0.0269890358585062 -0.1601601600875056 1.1473531781903945 153 136 118
0.1086543727468034 -0.0695613092373597 1.3285435339923120 178 153 96
-0.0223148181137076 -0.1613030050300583 1.1453905685120700 151 136 117
-0.0174647234268937 -0.1625738046663203 1.1436029712472702 158 145 129
-0.0319340984406812 -0.0762387438309162 1.2685640678271215 188 153 111
-0.0074842336482676 -0.1631620410604956 1.1436077236172690 149 132 114
-0.0629499984303847 -0.0751869022131250 1.2505595616305170 211 206 203
0.1719162333251790 -0.1505923453312500 1.1342917108511956 75 61 60
0.0523814603804887 -0.0759074414819060 1.3042470602422369 131 80 37
-0.1487808231053391 0.0137601238322273 1.2222938065058584 186 182 205
-0.0077853993647710 -0.1641959524521870 1.1393349929194858 143 130 113
-0.1652101181028475 0.0213990320385848 1.1400121042476183 255 252 205
-0.0568269707442512 -0.1659066170819815 1.1231645369764802 138 130 111
0.0029993444498001 -0.1671845335782083 1.1296520322655135 51 26 21
-0.0187435527257930 -0.1679913251824168 1.1271096782657692 85 57 46
-0.0525584536563326 -0.1683693046144673 1.1202555641144578 84 71 52
0.0028448758539923 -0.1674728801075845 1.1272074305309574 48 21 12
0.0028448758539923 -0.1674728801075845 1.1272074305309574 48 21 12
0.0359169862670363 -0.1651806040941080 1.1243027099105842 119 100 96
0.0126240077217295 -0.1671523953702637 1.1251620287556405 52 30 16
0.0126240077217295 -0.1671523953702637 1.1251620287556405 52 30 16
0.0601865944499671 -0.0367116019986393 1.3302184116540625 180 101 70
-0.0482046475066860 -0.1692400897512560 1.1181681564547450 86 69 49
-0.0076486882654490 -0.0843033443875587 1.2771248230668228 143 97 61
0.0120876706117782 -0.1675759385664094 1.1231618773096832 55 33 22
0.0120876706117782 -0.1675759385664094 1.1231618773096832 55 33 22
-0.0090395454460923 -0.1685905044393635 1.1226339862292272 90 73 57
-0.0044654478063366 -0.1687450605473531 1.1210742389260400 84 62 48
0.0053103882517401 -0.1683197715293155 1.1198736022681710 80 58 44
-0.0001216711984012 -0.1689782499207800 1.1195143188759831 74 58 43
-0.0653235435819004 -0.0823518965731410 1.2425877883335519 91 44 26
-0.0653235435819004 -0.0823518965731410 1.2425877883335519 91 44 26
-0.0116468033993119 -0.1696460588117087 1.1163531253768411 49 30 23
0.0789439709461600 -0.0803961024294498 1.3011101376091718 172 140 91
-0.0233844012092387 -0.1706761034956967 1.1133913388841421 37 14 6
0.0138589027419442 -0.0849523249598545 1.2784915608412595 168 111 82
-0.0233844012092387 -0.1706761034956967 1.1133913388841421 37 14 6
-0.0351493662266913 -0.1712592095865644 1.1126849134585866 80 59 42
0.0205749485400367 -0.0557686697941984 1.3087610055460914 128 66 41
0.0238938519349302 -0.0871401148273440 1.2832390269819387 115 59 34
-0.1283642815504202 0.0023141942625010 1.2407150718181092 190 176 131
-0.0871919992131187 -0.0826348531752260 1.2209994712666450 207 200 174
-0.0862943919014551 -0.0834198219920634 1.2210669576199453 255 255 228
-0.0074248418959287 -0.0910502223080454 1.2705957795667719 188 160 123
0.0928285519029033 -0.0877934043115839 1.3062652340266272 168 138 86
-0.0406335708573411 -0.0894951109418057 1.2500306212504042 138 75 44
-0.0422434979687766 -0.0898296916732266 1.2487070572105525 141 92 60
-0.0422434979687766 -0.0898296916732266 1.2487070572105525 141 92 60
-0.1005300532310517 -0.0736520661287726 1.1847897069087772 196 197 166
-0.0165196765835622 -0.0437539288357826 1.2969013165107923 129 49 40
-0.0738375858339331 -0.0904525756834033 1.2319155597847191 130 102 52
-0.0122269165752558 -0.0111855749267392 1.3146304911853575 114 89 25
0.1129761148952430 -0.0914070218220921 1.3112500504311100 165 135 83
-0.0772017562616171 -0.0911901213517520 1.2279594513077943 150 125 69
-0.0696197116065926 -0.0917486114162522 1.2322863250214351 189 168 121
-0.0806961240290246 -0.0112561068664555 1.2766470030019528 54 49 56
0.0196565090965731 -0.0922633056841277 1.2661631183476225 51 11 9
-0.0363704756403768 -0.0953080857329848 1.2460957665123420 144 83 52
-0.0148143980140496 -0.0975141932361312 1.2592872072860333 187 147 111
-0.0990748662638590 -0.0819897874087870 1.1885008462236455 213 182 162
-0.0743608977792704 -0.0951228379577858 1.2267542080319602 126 98 50
-0.0731419667284558 -0.0950264565275673 1.2265344029796430 176 154 104
0.0093734152591558 -0.0782384751338977 1.2914996045109737 208 138 89
0.0707952484733635 -0.0439167738402653 1.3311709866677963 146 56 29
-0.0731419667284558 -0.0950264565275673 1.2265344029796430 176 154 104
-0.0452379884602145 -0.0140794768854241 1.2964367416998073 160 84 71
0.0341514013448276 -0.0776726164218186 1.2976994234554038 146 77 61
0.0236860339273033 -0.0944020509459124 1.2624609661707340 44 14 16
0.0517418420419279 -0.0466566465714319 1.3233602767469337 152 76 40
0.0517418420419279 -0.0466566465714319 1.3233602767469337 152 76 40
-0.0787974586705131 -0.0967954402254805 1.2197894623140018 198 189 158
-0.0708491143328353 -0.0979611004542343 1.2253655973556370 126 89 45
-0.0885397467685084 -0.0942812478152096 1.2066694872535806 198 182 159
0.0917790437115901 -0.0980873440696526 1.2891302150075710 132 108 104
-0.1019151208269647 -0.0853884448374279 1.1763954859229582 177 192 187
-0.0941892346758735 -0.0927951714650347 1.1973804816948814 135 107 121
-0.0639126145245351 -0.1001748216239383 1.2255956597529343 102 52 19
-0.1470308819159886 -0.0126963668862906 1.1457809536204706 255 253 216
-0.0368877977124076 -0.0973219639137364 1.2452836844462611 138 67 49
-0.0270954378987733 -0.1022701944346132 1.2453241828593773 177 148 116
-0.0581111733526350 -0.1022014047459452 1.2277237164986936 120 55 35
-0.0336684220069151 -0.1043740858737909 1.2401422207321593 156 112 85
0.1116453652848562 -0.1011373071247790 1.2881942374312438 126 73 57
0.0859912353223964 -0.1016996159757229 1.2820565728330431 150 102 80
-0.0879927565928185 -0.0989727162201922 1.2047922463892349 190 172 152
0.1055555815669701 -0.0540684636318494 1.3353520913729664 166 116 67
0.0464321496976969 0.1751518939392210 1.3702601826935441 82 62 63
-0.1013760183365976 -0.0914313233422248 1.1792376590351850 249 255 246
0.0497851731674845 0.1724351347546110 1.3722621079334625 64 44 45
0.0494678474694317 -0.0609367175408916 1.3152817487210657 137 86 43
0.0202609950669256 -0.1015544088694712 1.2504538033524684 158 112 63
-0.0858185430580043 -0.1009541752526277 1.2066325061923828 183 176 147
-0.0858185430580043 -0.1009541752526277 1.2066325061923828 183 176 147
0.0339311982681574 -0.1017767285710835 1.2551400767422556 139 100 71
0.0862893441355379 -0.1074956700540177 1.2725159922140790 146 85 64
0.0512838701194301 -0.0624894451135752 1.3147538356183017 172 129 84
-0.0142765158080083 -0.1151718455446021 1.2355714895266012 157 111 87
-0.0057749673448841 -0.1086244341595962 1.2497751744656733 146 97 65
0.0435965545995379 -0.0643181737314638 1.3106839561313368 136 55 36
0.0362425103535561 -0.1032580122974065 1.2526516617216468 148 100 64
0.0885598594448525 -0.1134317537713207 1.2628803558540125 116 31 24
0.0254762424669602 -0.0664157545932602 1.3044774415863551 168 137 90
0.0246831193393426 -0.1029717288045794 1.2461023435973548 154 102 63
-0.0550354089156592 -0.1186966861269024 1.2080300093504006 136 92 55
-0.0078012331247429 -0.1102452020980574 1.2449590896563003 128 89 60
0.0340613803801207 -0.1030687860561617 1.2399029481866961 78 25 9
-0.0175654991089227 -0.1120249173726160 1.2396447413782050 129 72 43
0.0228650582339785 -0.0734427128569008 1.2986029648010968 99 68 66
-0.0153315043082464 -0.1121145337270265 1.2396404675057857 180 136 101
-0.1002382406465273 -0.1007457922210360 1.1792650191272269 194 195 179
-0.0738181577475331 -0.1095474860836921 1.2094182895558121 158 141 111
-0.0261700571258054 -0.1122052795691597 1.2325370394677073 119 81 72
0.0755810231844543 -0.0723391713805816 1.3096248468986997 116 51 29
-0.1199243033769690 -0.1318313977085755 1.1282944167111921 206 193 148
-0.0965670297032471 -0.0721069411862042 1.1981945157513092 215 190 159
0.0622673508154367 -0.1449680764122462 1.1633049937997719 91 41 30
0.0153669334718016 -0.1548723248579040 1.1723233946376728 56 28 27
0.2139549278937433 -0.1407114272293499 1.1729223930547084 45 27 27
0.0403783360283766 -0.0958290576329825 1.2802007494767662 145 88 71
0.0315409590524989 -0.0973602438003968 1.2650400658372225 150 117 82
0.0191222781200014 -0.0972010647684613 1.2563734019246506 112 47 29
0.0944438547381702 -0.0995799121820744 1.2882412942031982 115 72 65
-0.0240714416119477 -0.1039476234040994 1.2448202201150598 143 100 65
-0.0744700905300256 -0.1026433050072996 1.2170504642196824 118 66 44
0.1775638262643991 -0.1474226836547788 1.1418507276436218 23 12 10
-0.0201847812790332 -0.1615139175052858 1.1469315091782804 130 118 96
0.0164014917587849 -0.1027938011746956 1.2518348500180261 103 35 16
-0.0086944771152921 -0.1616992163339813 1.1503231587744953 150 123 96
-0.0207814753831652 -0.1062169136405501 1.2431620384948248 133 92 64
0.0250402388308547 -0.1013090221571742 1.2494959542622748 163 118 77
-0.0561880042751546 -0.1610559548238026 1.1340303598477843 17 0 0
-0.0561880042751546 -0.1610559548238026 1.1340303598477843 17 0 0
0.0264370030754149 -0.1017618235198907 1.2494508663782822 100 45 14
-0.0322344130318754 -0.1069763022553439 1.2366918123491617 80 67 61
-0.0322344130318754 -0.1069763022553439 1.2366918123491617 80 67 61
-0.0151175873615068 -0.1623059554503929 1.1444593854733529 127 116 96
-0.0226115377057266 -0.1638765203319328 1.1389428959279833 138 127 105
-0.0082351095234353 -0.1638876535684288 1.1423689509204129 55 24 21
-0.0346435406365471 -0.1638755476745584 1.1359610934271041 145 132 113
0.0877080776295191 -0.1100966917881637 1.2678255427803655 79 24 19
0.1301344292109372 -0.1089864875210490 1.2811315512742676 156 138 88
0.0049621667613917 -0.1640775808504053 1.1429129620276515 144 131 115
-0.0771294026918215 -0.1111240462471928 1.2054600760825924 177 144 101
-0.0506117661267791 -0.1132683573061141 1.2180824313054130 107 44 29
-0.0882542726269673 -0.1091205745215412 1.1941405604921913 188 166 127
-0.0337023074846220 -0.1148930007607213 1.2257265441011953 168 134 99
-0.0337023074846220 -0.1148930007607213 1.2257265441011953 168 134 99
0.1349185541500157 -0.1117512183515257 1.2808902855837008 153 119 73
0.1163127303185958 -0.1109317322728266 1.2663129295288422 155 122 77
-0.0037415638195272 -0.1646840549605141 1.1404027020802241 57 31 32
0.0599375265927241 -0.1166628037743035 1.2497576765649550 168 118 83
-0.1997543863866015 0.0952618526807553 1.1791745170843169 255 255 176
-0.0135677432346328 -0.1219260655913349 1.2256466250963960 140 112 75
0.1144970334570064 -0.1178566022396418 1.2517157108852075 49 28 7
-0.0501943027246152 -0.1658892621783537 1.1256510709919521 60 31 23
-0.0351733100896665 -0.1696365714776706 1.1197561897798916 144 133 111
-0.1284644935794846 -0.1634736043987193 1.0743813638156303 214 220 174
-0.0305388988711322 -0.1702218331210796 1.1176335537023279 132 124 103
-0.0305388988711322 -0.1702218331210796 1.1176335537023279 132 124 103
0.0393490469159553 -0.1625249085427900 1.0851834556977800 40 15 8
0.0484609763723946 -0.1679098193496703 1.0964390096882364 94 76 64
0.0366842012958696 -0.1689992898868193 1.0877111955986822 40 19 14
0.0714528180728122 -0.0724118077239675 1.3076370343901629 73 28 23
0.0498403563436514 -0.0759958310064380 1.3033504943698970 152 111 65
0.0635829892325256 -0.0782971842507693 1.3019470912022606 167 132 76
0.0227396767623551 -0.0932263174979208 1.2648285943354494 89 56 51
0.0413274951997592 -0.1642068200019005 1.1167780593520100 120 107 98
0.0731619970211793 -0.0243380505259337 1.3393863956742091 145 61 37
0.0317671034230031 -0.1634859491216200 1.0820110378570442 29 10 4
0.0343824141765673 -0.1664531394608909 1.0840992952698925 46 23 15
0.0525756975138547 0.1732168169377692 1.3734375114477286 164 150 137
0.0596069065508231 -0.0344029714034635 1.3311247849511316 154 47 37
-0.1861216456870189 0.0638963993561233 1.1711589171199102 255 255 170
0.0834593390175612 -0.1066490068683431 1.2728274823919015 66 22 13
0.0413999001877523 0.1684694742343768 1.3670809155857651 40 24 35
0.0085259659433787 -0.1527250445113634 1.1769531560939832 138 104 92
0.0058219331647512 -0.0500606718031642 1.3032914829409850 159 86 67
-0.0653889212727187 -0.1544637843734014 1.1463939758248698 119 112 93
0.0178922091399579 -0.0382055947244479 1.3144054268183050 166 77 59
-0.1704477380648982 0.0240880159138201 1.1560845647329447 255 255 185
-0.0492475840028552 -0.1558410851925333 1.1490627212496205 128 116 90
-0.0492475840028552 -0.1558410851925333 1.1490627212496205 128 116 90
0.0671834585426483 0.1311013236227239 1.3811794338279084 136 119 111
-0.0359241789880111 -0.0635203999737021 1.2756716246510877 156 63 45
-0.0449131701944384 0.1173153014967912 1.3256334417915983 145 93 71
0.0335107110718335 -0.0326955942178552 1.3233087622912236 123 64 66
0.0212601659203815 -0.0781980089697936 1.2955005305358500 106 65 63
0.1858877507694312 -0.1440720143418900 1.1463698527865747 96 84 72
-0.0496821948008618 -0.1589167375662466 1.1420564350808549 85 53 38
-0.0338721624593308 -0.1605312012642773 1.1441373363602665 63 26 18
-0.0586071309501807 -0.1599917436509996 1.1358455231584850 129 123 107
0.0811059908575371 -0.1102016481751546 1.2688519107591290 78 36 37
0.1902342440620527 -0.1474908262488188 1.1450955433455761 119 110 101
-0.0174775223687947 -0.1618012289493743 1.1457400787669703 43 9 10
0.0030083814988428 -0.1342684957927294 1.2123726602101077 171 73 60
-0.0608403602315010 -0.1622424950046004 1.1292598538227994 129 121 100
-0.0318508799912406 -0.1639557439607287 1.1350492680687960 99 60 45
-0.0300959357324012 -0.1652959859334460 1.1326589956335882 143 130 111
-0.0300959357324012 -0.1652959859334460 1.1326589956335882 143 130 111
0.0526314773189995 -0.1105296463432301 1.2587014900933946 151 106 67
0.0657896655465036 -0.1348512324905919 1.1623751823533612 99 41 37
-0.1494587928593443 -0.0132521643035388 1.1533530180450300 219 186 171
0.1036854074557352 -0.0510251013470894 1.3356545510490163 122 54 33
-0.0065549889098181 -0.1655684143745695 1.1381221533886161 135 122 105
-0.0065549889098181 -0.1655684143745695 1.1381221533886161 135 122 105
-0.0748768823130573 -0.1628856645340886 1.1217409457824892 96 87 80
-0.1279607693478544 -0.0479602034429784 1.1381673363037341 253 139 165
-0.1602734495638560 0.0173699653586755 1.1277584645242398 248 146 170
-0.0874926912126611 -0.0739083475965783 1.2293915711105798 232 201 209
-0.0707287839525657 0.0376475703244888 1.3010923358174247 179 173 147
0.0335679372114907 -0.1035708468815945 1.2462783337702257 82 43 28
0.0028637121070465 0.0161436200302269 1.3318668112529448 124 69 49
-0.0669622391076296 0.1168942909190478 1.3106674531263134 161 126 94
-0.0909390101146773 -0.1401720690843074 1.1581309316234709 155 40 53
-0.0187761800609615 -0.0308182095294662 0.9797714748810876 27 16 0
0.1697952673813140 0.0331354157954407 1.0454955346048425 141 100 38
0.1921831531163680 -0.0380675135826154 1.0745038658974921 157 49 2
0.0551787091280720 0.0405645144104719 1.0091442922494558 35 39 4
0.1515721827203182 0.0166973206589670 1.0501030528503532 152 112 51
0.1212171563956496 -0.0200087119905468 1.0245566822040988 222 225 158
-0.0077536975309238 0.0173662089703290 0.9876323014486281 142 124 60
-0.0947563852158117 -0.0642143015418936 0.9973475475750956 158 12 23
0.1226561691318002 -0.0767706774813410 1.0957530170287768 96 74 35
0.1251756483503106 0.0398571267333040 1.0186304434132019 89 86 33
0.0856485910129064 0.0052211275354338 1.0205905856558228 149 155 93
-0.0152089848288976 0.0647869132773822 0.9844722011847981 45 36 0
0.1309602671437413 -0.0341989493400208 1.0618327960907104 145 112 59
0.1309602671437413 -0.0341989493400208 1.0618327960907104 145 112 59
0.1819137860264723 0.0219098689039720 1.0502175108072236 98 88 37
-0.0238230563899982 -0.0682928256468591 0.9746841943496672 133 117 57
0.0224123485098129 0.1028095512190589 1.0040899658221329 140 121 63
0.0066850164281588 -0.0336760435155173 0.9929579479118895 21 15 0
0.1144421461030938 0.1446412302773314 1.0651044756105192 103 81 34
-0.0001826051512298 0.0869454571186622 0.9951000246722806 244 243 178
0.1481696955282783 0.0463688842153482 1.0293928624730238 158 126 53
0.0093767209278121 0.1318244635548440 1.0069463094440712 146 126 63
-0.2743094255533147 0.1901108126324979 1.0603930600529736 180 151 137
-0.2550880055116132 0.1745270654318829 1.0714664420773317 180 152 151
0.1469909893841019 0.0135830461974901 1.0425823582600495 76 43 10
0.1473619940264210 0.0202499243101021 1.0393980485524552 25 4 0
0.1392169025750746 -0.0039862934898494 1.0389309033740521 75 42 7
0.1130547214438772 -0.0763644735240850 1.0478675037013472 25 16 1
0.1451147146408534 -0.0053905277304021 1.0504258208093844 88 67 50
0.1465378750177937 0.0013302028462313 1.0470790217140573 49 31 19
0.1154744107904785 -0.0618799128731445 1.0412280310992756 101 83 47
0.1964538584099702 -0.0219217519966563 1.0671891104127780 206 43 38
-0.0909685502283197 -0.0458774139580752 0.9819970262671084 253 255 249
0.1964538584099702 -0.0219217519966563 1.0671891104127780 206 43 38
0.1414323263229709 0.0075044339453502 1.0339739291071490 98 70 23
0.1064808786846339 -0.0672237313284137 1.0335668705139736 114 99 60
0.0304936171881793 -0.0667190841440915 0.9988289518976339 129 128 84
0.0208185342424683 -0.1169476880266649 1.0037724099692302 35 15 4
0.0208185342424683 -0.1169476880266649 1.0037724099692302 35 15 4
0.1254994425866227 -0.0408371079066527 1.0601912703608278 142 108 45
0.1989491910493565 -0.0071843710356617 1.0615761802929820 212 72 47
0.1864615529310526 -0.0767974030749839 1.0904119505731711 92 23 26
-0.0150753111716815 -0.0921143370992587 0.9837823809088105 148 129 71
0.1193682377987473 -0.0285654033682438 1.0272469644081943 180 174 116
0.0793102297163733 0.0594613584303598 1.0111928462205482 213 213 143
0.1166252001480405 -0.0183615580621303 1.0222728302848942 75 81 45
0.0780022612626828 0.0609407301410869 1.0115521032224624 46 46 12
0.0909188609780661 0.0585178372062443 1.0128055244944234 50 43 17
0.1243136118554667 -0.0175610970840386 1.0256910492422995 91 74 30
0.0916976546946244 -0.0948319223171521 1.0370157407026535 44 23 0
0.1453527667061742 0.0528640957018070 1.0247823312619289 198 191 110
0.0906945013763702 -0.0095499128992724 1.0246197411268163 215 214 132
0.0980790924505374 -0.0112837955821032 1.0247207188109615 241 251 190
0.0041899383180898 -0.1246192695949124 0.9992237983652893 117 98 55
0.1080441300759094 -0.0974745186347292 1.0635558829883780 106 83 52
0.1190064434535206 -0.0181271778389757 1.0236954964259399 74 69 27
-0.0087619641601194 -0.1016610881168618 0.9842137865766665 145 124 61
0.0292318354036216 -0.1099070943583019 1.0040670346140539 155 134 67
0.0746830372278953 -0.1151472959535389 1.0380735469711211 88 76 54
0.1755861298918129 0.0539492371717442 1.0392682694093449 132 36 12
0.0887303413815473 0.0588357356891700 1.0126033141485689 50 43 0
-0.0091934245623009 -0.0108748814429273 0.9849786998534203 26 19 9
0.0482807758087629 0.0648237898681287 1.0081243100565154 52 56 42
0.1033898487915083 -0.0206921189620214 1.0250876204311259 234 247 191
0.0482807758087629 0.0648237898681287 1.0081243100565154 52 56 42
0.1631957124182975 -0.0062157742028940 1.0674962930825307 143 100 58
-0.0145665517744996 0.0686731060044682 0.9876153495230964 32 31 1
0.0876915087300014 -0.0164139521432533 1.0232207544007963 143 127 67
0.0964121655516229 -0.0907291462078692 1.0375406816480386 31 14 0
0.0051072919686465 -0.0059842430493647 0.9926801786578850 125 111 50
0.1211151742386155 -0.0215301088258648 1.0247606032802370 39 48 5
0.0330523833359471 -0.1024718696461068 1.0046298919957957 97 88 57
0.1194845450831076 -0.0476176076180037 1.0347408799446967 150 126 64
0.1223746119906396 -0.0201779144021151 1.0248880240144287 55 47 8
0.0189763945077049 -0.1039227323223978 0.9962873783623162 96 92 67
0.0189763945077049 -0.1039227323223978 0.9962873783623162 96 92 67
-0.0780120094366860 -0.0755533106326958 0.9963670306328459 22 26 3
0.1753961205382081 0.0587752592499377 1.0382168246701668 130 32 3
-0.0214285554819567 -0.0954937954387795 0.9788448143040430 124 109 52
0.0913190577872655 -0.0126381801660063 1.0234410652176991 210 204 128
0.0800173882611458 -0.0016361332653330 1.0212582947317679 39 39 15
0.0299038410329719 -0.0927264729184765 1.0007173378384873 140 124 75
0.0914886819979288 0.0619494420232113 1.0129562431734038 217 219 156
0.0909339714848910 -0.0876741187098881 1.0332457533518808 148 147 83
0.0078712565320110 -0.0012478471040562 0.9961874478847990 148 129 73
0.0835767392272949 -0.0009209358666485 1.0226945585138694 61 54 25
0.0305734910338043 0.0734101557169871 1.0060225900911330 45 49 22
0.0335343132642974 -0.0913821069124162 1.0034367156539397 31 19 0
0.0984724694190708 -0.0867810590546236 1.0499217190782300 108 89 47
0.0335343132642974 -0.0913821069124162 1.0034367156539397 31 19 0
0.0859731124645893 -0.0008052841405359 1.0227227104861008 51 49 10
-0.0152541741352733 -0.0929621591534358 0.9816101436426943 150 129 76
0.0859731124645893 -0.0008052841405359 1.0227227104861008 51 49 10
-0.0244449091481574 -0.0472290044885984 0.9748505691669507 27 10 0
0.1132601553065159 0.0610314026453965 1.0183170691728543 193 196 119
0.1546186727931032 0.0035485425982313 1.0615582931084295 78 14 4
0.0046000441535245 -0.0013001523535776 0.9923874490796817 129 111 63
0.0046000441535245 -0.0013001523535776 0.9923874490796817 129 111 63
0.0389636818596247 0.0714551448894914 1.0049694104066778 62 57 19
0.1642915098762663 -0.0724677957491168 1.0905098291558193 156 121 63
0.0108098494804741 -0.0431128901784209 0.9932006522160658 179 178 111
0.1014555317347572 -0.0029468271140519 1.0231539977298312 55 58 27
0.1185426712736362 -0.0430193194802765 1.0310289534480022 106 89 43
0.1021267096671134 0.0628788470337321 1.0156327968699346 40 31 0
0.0991296009568768 0.0623739675643454 1.0144682115502823 45 42 0
0.1021755304213897 0.0625894193495454 1.0153102918412618 40 31 0
-0.0331695169577721 -0.0991930603400254 0.9622265621524232 145 120 80
0.0238656235608923 -0.0906656395279989 0.9978365913960072 156 141 84
0.0832058573681548 -0.0033598145828299 1.0240158769487435 91 92 35
0.1574055529727229 0.0617339273095567 1.0321757238183238 168 122 62
-0.0866743984866079 -0.0705165662076065 0.9925039847082380 54 56 35
0.0338283961700826 -0.0876209478333716 1.0030447225994930 145 129 70
-0.0208910436106712 -0.0040161235924306 0.9783415191432271 33 22 4
0.0183091991454815 -0.0905493748013361 0.9952029341355795 158 145 92
0.1448805048520909 0.0591156207691431 1.0242177550184330 46 37 4
0.0133827302582282 0.0033668418188656 0.9996018015333756 22 12 0
-0.0043923573500825 -0.0878682833161976 0.9876734939442622 130 118 68
0.1114012026084087 -0.0082383396368382 1.0237036827633086 70 71 31
0.1717761839680326 0.0608641268656202 1.0347190719213795 137 38 9
-0.0086055130443868 -0.0886969394471522 0.9851760993602154 134 123 69
0.1637401609470091 0.0612293173786074 1.0336165973267160 169 139 75
0.1080129648293518 -0.0064845882512684 1.0223181464289768 41 45 12
0.1683215071669175 0.0608989499825860 1.0344123522408644 146 59 32
0.1012867320565022 -0.0814650503698651 1.0373081359192484 51 27 1
0.0505240702507725 0.0732848903520059 1.0057236783127395 48 53 13
0.0097318917468725 -0.0005038330693602 0.9951780429750057 140 124 64
0.0280218102176733 -0.0865510651586440 1.0001834749090701 166 149 77
0.1587077367086084 -0.0654271673884953 1.0851770375072738 104 32 8
0.1111437981606920 -0.0056244226731297 1.0230015089263496 52 59 15
0.1690590948098480 0.0060486508691714 1.0596457153869994 100 25 4
0.0335447018355546 0.0805475748859239 1.0060248218484074 63 59 22
0.0131919891411319 0.0008590436180131 0.9974047974303556 164 144 71
0.0645251363035956 0.0741884208286719 1.0088604436650994 62 54 8
0.1145310279590819 -0.0063373270366151 1.0228196204857092 220 230 170
0.1206769781046515 -0.0061476721444311 1.0225579950933921 48 56 7
0.0506844273530159 0.0073278380927314 1.0160146699379080 206 200 112
0.1064723628953320 -0.0768688372386774 1.0395415069864635 136 113 61
-0.0191722681773451 -0.0024766983140266 0.9783086711623976 42 34 13
-0.0138351964457747 0.0794492024581590 0.9896621102356716 69 71 31
0.0327096296723507 -0.0845383144437059 1.0014544362682472 19 12 2
0.1310933410155227 -0.0058064033785537 1.0258290743201277 69 50 10
0.0324800816654292 0.0813230505534731 1.0059406807304838 222 225 172
0.0580825957490285 0.0734613092263548 1.0074043000514421 45 40 2
-0.0218447177681675 -0.0004679095199160 0.9795146055191086 19 15 4
0.0723987518725315 -0.0768698827946275 1.0235755563065589 180 147 78
0.0056196821030860 -0.0818750205095260 0.9903659185564820 26 30 3
0.1559631086722398 0.0641964010391895 1.0287236884154620 144 70 33
0.1075438817781360 -0.0016360837552798 1.0215298243916260 68 68 18
0.0187492816715565 0.0041158899924857 1.0006622335715456 149 138 84
0.1420921962959845 -0.0604997772397326 1.0757870664975002 74 4 0
0.0731283308038412 0.0751404892567471 1.0110080798335324 47 33 4
0.1127864389963332 -0.0032007502189655 1.0212334141674322 53 58 26
-0.0160402494118994 0.0817397498328701 0.9897356204149260 34 36 0
0.1360157364952377 -0.0037167043178426 1.0307361046697749 57 35 0
0.0748439345183358 0.0754648760410638 1.0116627997401577 46 38 2
0.0869858049120532 0.0045455064418210 1.0219441683208270 233 242 161
0.0937401384695918 0.0017338826016610 1.0219981050691151 40 43 16
0.1116296540018964 -0.0018806413675747 1.0220371934173380 200 203 158
-0.0147735825944574 0.0818752399591769 0.9896009297710482 196 195 131
0.1265925365562498 -0.0048470743041353 1.0235956858606676 24 17 0
-0.0025957524230815 -0.0800071927530416 0.9881035682747119 152 149 96
0.0655796446764438 0.0076391628032166 1.0176538888294080 33 28 0
-0.0025957524230815 -0.0800071927530416 0.9881035682747119 152 149 96
0.0782312779311736 0.0758877041649795 1.0122404863372638 52 44 8
0.1021035222542567 0.0737065656526976 1.0174421583725344 51 47 2
-0.0057086244581577 -0.0797813766172144 0.9866836974949779 25 15 5
0.0386666085941663 0.0805064131678365 1.0042765813546388 231 236 169
0.1198470898053761 0.0719781766893839 1.0220963237673919 75 79 29
0.1277324029181465 -0.0048408435114304 1.0230316630942369 179 170 91
0.1232580383345843 0.0716630230070068 1.0232287421236228 205 201 137
0.1446605123735152 -0.0170509697448412 1.0647782206055501 129 82 52
0.0201978215682197 -0.0793042887378293 0.9953095661246721 31 31 7
0.0201978215682197 -0.0793042887378293 0.9953095661246721 31 31 7
0.1714966072576575 0.0102415895259419 1.0565676022886472 94 18 4
0.0201986362121650 -0.0751267789021793 0.9956226894004715 167 163 99
0.1725090525947262 0.0100647570967673 1.0560932795751798 142 78 53
0.1252395326111772 0.0731621569336001 1.0231045658073432 201 200 146
0.1220657544021470 0.0722491799768754 1.0227666044366104 47 54 12
0.1384582513403869 -0.0176072066802021 1.0602030065455841 110 88 51
0.0308135480457146 -0.0742807332712824 0.9989047245427457 156 152 88
0.1222084083044503 0.0717913453873108 1.0219165714976244 44 37 18
0.1441390923984682 -0.0537297587091130 1.0760380243989263 152 92 56
0.0537792405763357 0.0117311739691622 1.0145494853185162 213 214 146
-0.0913850144758060 -0.0533120922510961 0.9878990730154911 108 111 100
0.1370651050652904 -0.0547052886083957 1.0699315574496038 121 96 55
0.0977089107566028 0.0781844679627933 1.0180441500245139 161 161 99
0.1481992527528899 -0.0549461884134945 1.0736543650573169 90 20 0
0.1209293796833010 0.0724296009211825 1.0218037250026000 221 221 151
0.0316394270475358 -0.0761061163481311 0.9992336006203181 21 15 0
0.0012468999956279 -0.0699638536308281 0.9898695056559457 134 128 70
0.0924611839819485 0.0077951682590518 1.0205265572115891 44 44 8
-0.0264786440180347 -0.0309465328241344 0.9756001786166025 25 15 6
-0.0245746171789414 -0.0301130174624010 0.9772376847774618 19 9 0
0.1197786919626724 -0.0007268971683008 1.0207973044605885 62 62 26
0.0603839932752340 0.0118488304988594 1.0162361216907390 38 32 0
-0.0853098392933907 -0.0570865148121803 0.9869709325191593 196 210 195
0.1307556693620706 -0.0183368046730691 1.0475795126788323 110 86 38
0.0816852786053072 0.0115455073805469 1.0193700539364636 231 232 164
0.1439299437642974 -0.0514579203471325 1.0703451070747263 115 27 15
0.1439586729689795 -0.0514658361545389 1.0703376417563351 99 12 3
0.0471189652861187 0.0863953021294360 1.0097926532246746 62 68 32
0.0447545041042967 0.0140375246549977 1.0130775934403813 27 25 2
0.0714647966147246 0.0860936072101742 1.0136876470774645 154 154 104
0.0308219558820160 -0.0663051448764837 0.9994029204811952 22 24 10
0.0189565609007937 -0.0661670206057682 0.9953497299302786 190 183 115
0.1067574189831567 -0.0684842983392153 1.0345250257588434 83 78 40
0.1433540479079154 0.0104352849273100 1.0366389919522976 77 49 10
0.1057064461996594 -0.0684675750268835 1.0328329454224638 30 17 0
0.1410153130860922 -0.0528792461345916 1.0719831569434417 130 75 45
0.0188778102500732 -0.0196584956918481 0.9993214387080770 200 195 113
0.1410153130860922 -0.0528792461345916 1.0719831569434417 158 90 67
0.1424142663629148 0.0090030215490080 1.0362004377741096 130 107 57
0.1303780737111506 0.0017349711206984 1.0244847967031820 35 20 1
0.0213670861278860 -0.0183828660697575 1.0012794447393552 42 37 5
0.0485498829287627 -0.0638790019418531 1.0063794940184254 181 162 86
0.0739848989315636 0.0825429615176586 1.0116935156970159 182 190 133
