ply
format ascii 1.0
element vertex 695
property double x
property double y
property double z
property uchar red
property uchar green
property uchar blue
end_header
-0.0883644061348097 -0.0403894252236134 0.8135882252461174 68 80 106
-0.0857028000400906 -0.0406519486052027 0.8155846201156380 61 77 110
-0.0096616482644043 -0.0407724818559226 0.8459213526670819 104 107 112
-0.0097627945170041 -0.0408689385091407 0.8461272987281518 104 107 112
-0.0867602856204044 -0.0392498813160995 0.8145854375949824 98 106 117
-0.0541247864219834 -0.0393350003375310 0.8276314026894162 92 96 107
0.0033545166030630 -0.0397511962300133 0.8516857400491097 95 100 103
0.2100506696658288 -0.0398762930300836 0.9408026253131618 51 51 61
0.1903770244393593 -0.0397649488783492 0.9305082152466025 117 110 104
-0.0599081422170458 -0.0382230640325843 0.8244719051646474 95 103 122
-0.1027158808155150 -0.0368286262795099 0.8070334345219620 96 100 111
-0.0169078566347244 -0.0376765153250627 0.8446605625693503 116 123 139
-0.0167009667968935 -0.0376326300753901 0.8429808182617360 74 81 107
-0.0387509929926282 -0.0369394313649067 0.8336525014179245 105 115 127
-0.0887521494383799 -0.0361328821810983 0.8118789254161001 77 85 106
-0.0744633067356209 -0.0357735176155569 0.8180770270956549 82 91 108
-0.0146756137629441 -0.0347972198648249 0.8416669776145028 102 111 118
-0.0144951861358393 -0.0348824220318768 0.8418113606234009 93 100 106
-0.0043446912873545 -0.0348579030730450 0.8465573942231959 110 121 125
-0.1625763917814271 -0.0273915920229130 0.7870603977328680 44 61 79
-0.0847675584346669 -0.2268952302062446 0.8997991943403414 102 96 98
0.0705588592521551 -0.2442933197713864 0.9904391502115739 107 108 110
-0.0841398962030415 -0.2225317525181102 0.8982015485334581 84 90 102
-0.0752004072876832 -0.2223966371903612 0.9017775978094664 80 83 92
-0.0860811598702275 -0.2142886374390236 0.8926384523420948 106 101 105
-0.0819653187352111 -0.2154938628429332 0.8996520397681087 97 92 98
-0.0288398610397621 -0.2184840956863225 0.9219492677058342 28 36 59
-0.0449174492675552 -0.2160342569984021 0.9113210879617460 105 109 110
-0.0826281982988285 -0.2298905994747379 0.9828649818356249 91 92 97
-0.0021274613090488 -0.2064652646044262 0.9236363414065922 60 66 78
0.2131945920998211 -0.2088911929935703 1.0172780262918331 48 52 63
0.2558859970429989 -0.2122849938817841 1.0340534148721860 87 90 95
0.2577180100086660 -0.2099815631490591 1.0281128752116750 45 56 78
0.2713585867756574 -0.2079671546559037 1.0428045593998116 81 89 100
0.2356428169185143 -0.1980531388968477 1.0167467238209018 45 57 79
0.2805903991768402 -0.1966570220403818 1.0374418432993493 52 63 83
0.0323044547810825 -0.1756378124064054 0.9233485858438764 114 108 112
0.1081200631140881 -0.1733226503173200 0.9546884331621402 157 144 151
0.1080732092341170 -0.1733924942978144 0.9547401865616910 117 108 111
0.1211623590235120 -0.1687375896170019 0.9576685941297628 121 112 115
0.1569194680005770 -0.1712182669184853 0.9740102442880576 45 40 47
0.1602862241286225 -0.1685544577844862 0.9746063608835512 54 46 67
0.2458070379419235 -0.1394785610590902 1.0009598757616598 96 92 93
-0.0549148657721316 -0.1079628143406297 0.8570036802022650 113 109 108
-0.1368672111597307 -0.0858114430046409 0.8116165286093562 33 51 73
0.1720496097642899 -0.0816724198644879 0.9405237745525834 111 103 100
0.1727811750862401 -0.0814247098798748 0.9421436179809625 113 111 96
-0.0911723316681757 -0.0686758373250440 0.8240216863283872 118 124 140
-0.0911728185200324 -0.0686581699992679 0.8243235992386660 75 96 113
-0.0653942121549890 -0.0667964950586292 0.8336396537270887 101 114 123
-0.0653392243856485 -0.0666325293388914 0.8335668149310514 102 112 124
-0.0805949377749789 -0.0649729245089939 0.8268982720879424 112 107 111
-0.0884043449759907 -0.0443951412476281 0.8154647936646302 32 36 61
-0.0802488310204494 -0.0619949333490286 0.8256281684405219 147 149 161
-0.1060278124795214 -0.0612162060905090 0.8149335104890274 98 107 122
-0.0743930608799309 -0.0605410746684943 0.8271144440297732 46 53 72
-0.0079194125309612 -0.0607199619879329 0.8547987035154930 160 155 159
-0.0988353623848962 -0.0593854468286699 0.8164104608023919 47 54 72
-0.0990948255040864 -0.0592951046450482 0.8185121181593541 26 41 70
-0.0307887573370499 -0.0606479270368578 0.8449949561169938 33 40 69
-0.0306827266240270 -0.0605706457335300 0.8448533550788934 33 40 69
-0.0345787280349919 -0.0598862944161266 0.8439898638925166 96 96 106
-0.0161541095998946 -0.0601165341150079 0.8511670279926361 33 40 66
-0.0904824494607364 -0.0571325063766483 0.8190996570986012 96 104 117
-0.0366336950041280 -0.0361107797683724 0.8334576150564286 43 51 72
-0.0380248107550290 -0.0573133300549445 0.8413118165052932 30 44 73
-0.0048804477101015 -0.0580659081116192 0.8548776464515755 110 105 112
-0.0924624563824215 -0.0561383674321282 0.8204504254294670 23 40 68
-0.0644374850098332 -0.0559806777985925 0.8299295974733247 96 101 105
-0.0902348590176442 -0.0552284447028804 0.8188786894646091 98 95 104
-0.0545209991823787 -0.0558684990711595 0.8335567708945260 109 113 125
-0.0544594903522164 -0.0557872629190263 0.8337319032036939 92 94 109
-0.0062126165458647 -0.0558128314858400 0.8531473374745039 49 51 76
0.2293308864821752 -0.0509567788907289 0.9542133806310615 64 56 95
-0.0723042040045462 -0.0470840984492071 0.8220525052297610 89 97 110
-0.0690561601723286 -0.0470604401031242 0.8242146911380221 95 101 113
-0.0619168165185029 -0.0471077714103217 0.8275061205554917 96 102 114
-0.0792075051213642 -0.0457885550644580 0.8188968949744969 38 49 71
-0.0506351073516890 -0.0465456551134620 0.8312903195549162 97 107 119
-0.0738150405616054 -0.0454968605529283 0.8219928183431955 37 44 60
-0.0673026538508560 -0.0452990172214408 0.8239183260595233 30 40 65
-0.1026402102390406 -0.0443640818818863 0.8100830037966927 33 40 59
-0.1026221850293910 -0.0443314550745452 0.8095292241406842 48 54 68
-0.0181027233489663 -0.0446949543619316 0.8440746554021393 92 101 116
-0.0503565419102689 -0.0437522625602685 0.8304184919761898 91 91 103
-0.0335546668458253 -0.0436089017955982 0.8348825577179693 97 103 119
-0.0354421917384102 -0.0432806659942073 0.8360153105672027 19 26 54
-0.0134393358821390 -0.0435727088726360 0.8452323872256758 22 58 108
-0.0789630627968760 -0.0420085923467629 0.8178834117063173 42 46 58
-0.0579523816223322 -0.0418473262999963 0.8256605988907221 113 120 126
0.2146596438230121 -0.0430701556015751 0.9442338522247585 115 106 101
0.2168882820604627 -0.0430689288637635 0.9448422753694300 117 111 111
0.2203687697248984 -0.0428381600460707 0.9445399028948023 119 109 107
0.2475828408950485 -0.0426888829896532 0.9598049903130484 38 29 72
0.2464587625887043 -0.0426415830999707 0.9566940570064599 41 38 47
-0.0829457603955914 -0.0403515936605790 0.8158458596263963 92 95 104
-0.0718065326733072 -0.0399167133920112 0.8206293717645725 104 107 116
-0.0918582459537544 -0.0391664369662687 0.8111639860610074 109 119 131
-0.0351786255173129 -0.0395450472592001 0.8346821862557194 38 52 78
-0.0352122642871276 -0.0397163472937864 0.8348088849904569 38 52 78
-0.0080672943500006 -0.0397348260780292 0.8456824686379079 54 66 90
-0.0878086876275494 -0.0381648572368700 0.8135046915950493 29 46 76
-0.0732985510623066 -0.0379501036866680 0.8203155099906323 44 47 62
-0.0973684617017817 -0.0371877252079461 0.8092452908892174 136 151 174
-0.0075196727434644 -0.0376384923268676 0.8426335213952683 40 54 80
-0.0593754447413546 -0.0356791526666579 0.8244293481574516 101 108 124
-0.0022040489337337 -0.0344921533565304 0.8469098206135989 114 119 123
0.3395491194519973 -0.0109714635969907 0.9771453853780084 102 93 84
-0.0584916882963507 -0.2257350392356572 0.9107380368114448 100 95 99
-0.0888821342635261 -0.2183714455906261 0.8945489733000792 112 103 104
-0.1591846862831698 -0.2063361066188190 0.8452965108975571 18 34 49
-0.1009057401086009 -0.2165163881940012 0.8893352549999342 24 36 60
-0.0422183576319031 -0.2225999773816209 0.9158142442446598 31 47 73
-0.0536010326955147 -0.2178781950288194 0.9082297039081006 40 56 79
-0.0523652276717208 -0.2107001770573468 0.9056171472130176 29 46 66
-0.0480419924677565 -0.2024466980551028 0.9032492873744209 93 92 90
-0.0101491790855658 -0.1987992514691420 0.9178535598767620 46 62 87
-0.1765995832402889 -0.1810428286973437 0.8347955473451264 16 43 70
0.2286772074640544 -0.2157028461151313 1.0272676637882667 101 103 102
0.2684308207904438 -0.2108214339848359 1.0299733588611919 79 90 96
0.2591659654703466 -0.2065850669074696 1.0353929612818022 48 59 81
0.3059661551019344 -0.2058943815714136 1.0531541667177688 70 77 87
0.3031785257026462 -0.1972467075696428 1.0482463969767479 63 71 84
-0.0754863255465366 -0.1630272248516050 0.8726161046132266 93 88 84
0.0035186796591131 -0.1688381842898494 0.9091452743574051 106 96 95
0.1160622749959596 -0.1670679027645219 0.9541099525936189 125 116 119
0.1281476177089248 -0.1495953773350649 0.9518915927542160 61 52 57
0.1715954385560295 -0.1044991720927992 0.9495547352740040 118 110 99
-0.1389589357730640 -0.0866508261381507 0.8099279960075517 17 30 47
0.2208969595217024 -0.0902297229001759 0.9646403448401509 43 37 37
-0.1050512395603503 -0.0692142802720778 0.8188905257362687 92 96 97
-0.0987025876193124 -0.0689546688087107 0.8214211403584331 96 99 108
-0.0810631061743352 -0.0678844981592559 0.8280589566574982 86 96 106
-0.1028433523351864 -0.0670290061086642 0.8185848239342887 43 53 80
-0.1031131250675061 -0.0670690470292852 0.8188646899556770 31 49 73
-0.1002811073272403 -0.0668881589121652 0.8197852945636578 28 44 69
-0.1001188592754024 -0.0667466181385531 0.8193131280854647 29 45 78
-0.0855634413191353 -0.0664397540429354 0.8254002392262749 112 112 120
-0.0910968028760473 -0.0658291503696098 0.8232315866452781 103 102 110
-0.0560480129719980 -0.0651774796852402 0.8367537998939714 97 96 102
-0.0723904186738471 -0.0645554134895981 0.8311044002796991 93 102 109
-0.0722894960477147 -0.0646063011203322 0.8300659529314425 98 98 106
-0.0632667231303854 -0.0641470207346581 0.8335490486501118 24 41 71
-0.0635120614018679 -0.0641973198249738 0.8332925879258646 56 81 121
-0.0905195070996900 -0.0626074701102389 0.8216414701738530 53 59 81
-0.0341752785820362 -0.0632294948339452 0.8448683049203584 35 48 67
-0.1009392988522400 -0.0605337341412984 0.8167958018980865 100 101 103
-0.1007707425768314 -0.0602526683121569 0.8167734969467251 97 100 107
-0.0629095375444275 -0.0615746665336918 0.8322353259206532 107 107 115
-0.0457822355986781 -0.0622986067971177 0.8397165527483886 97 100 107
-0.0628926954619306 -0.0584055752400934 0.8310335349926591 41 56 79
-0.0629257751764637 -0.0584244407295325 0.8310892230102354 70 90 117
-0.1321035545101135 -0.0560306844683569 0.7981397132760333 26 43 69
-0.0785614599613061 -0.0570222549189075 0.8240995833263001 94 104 116
-0.0197718635600215 -0.0578838297351299 0.8487753669983156 106 104 105
-0.0330364886080476 -0.0568462745489728 0.8428570206398448 54 69 92
0.2519050138146275 -0.0597409593431485 0.9650225751293092 108 104 101
0.2456311871135186 -0.0519366655641261 0.9606122337021467 36 31 87
0.2234538685765382 -0.0518341595878414 0.9512980988687160 61 46 85
-0.0974968446812695 -0.0455999023913324 0.8124099084628771 99 102 107
-0.0872328297356224 -0.0465987875309928 0.8165917865233371 106 106 116
0.2231149291137596 -0.0454041930987250 0.9494395615288621 43 30 86
-0.0917647353312007 -0.0422954038388716 0.8134937115550143 51 56 76
-0.0079304075335696 -0.0418930406472588 0.8473509934145343 18 35 61
0.2347684124256263 -0.0428821740305950 0.9542832696789690 124 108 108
-0.0329374043616633 -0.0409505286614255 0.8365033554169385 90 92 104
-0.0687044600091614 -0.0401728373478576 0.8216441871204264 136 141 160
-0.1030154255028508 -0.0394027190577058 0.8082409970121748 95 103 116
-0.0519052574712312 -0.0395684542480646 0.8286231692024691 33 49 75
-0.0518046503063217 -0.0396084777045370 0.8286718595177109 42 49 75
0.2391292103215405 -0.0413527883515758 0.9556138820376804 38 30 81
0.1930380205205492 -0.0390248903238075 0.9320616653289103 115 104 112
0.2430204124655731 -0.0387510387288693 0.9543705646486536 182 172 173
0.2416697837688443 -0.0392679700311327 0.9549072521382919 150 141 146
0.2403291784360363 -0.0344664551794675 0.9537776912267092 53 48 54
0.2290701115827113 -0.0327865022191077 0.9423137775704444 121 112 105
0.2386029464842715 -0.0299152037561412 0.9470602677491770 60 54 68
0.2838855997439821 -0.0131178253255843 0.9567218125600082 54 61 77
-0.0292944117170348 -0.2279603544369029 0.9246413223065366 69 77 90
-0.1027769493782639 -0.2135703914403295 0.8936877522095074 27 37 62
-0.0361413970159764 -0.2078184576808562 0.9011034027018411 31 42 70
-0.0047203741221536 -0.2140917746157933 0.9268318357962235 81 86 92
-0.0025572187610355 -0.2124324977807474 0.9264332388275021 128 126 140
-0.0333375950528864 -0.2097778117774267 0.9127032526071216 106 109 116
-0.1506335965613318 -0.1907217230990995 0.8518687703373973 43 93 126
-0.1379665387258036 -0.1897743856409278 0.8559671962663677 28 38 47
-0.0031184662724974 -0.2028542276021627 0.9218940645071246 91 92 96
0.2069528171896906 -0.2170795808433497 1.0208330283313312 87 91 100
0.2533744760926911 -0.2110521763320929 1.0365575226862087 58 67 84
0.2057957284609294 -0.2059070301544885 1.0135576488161493 85 92 98
0.2576988184908821 -0.1275043888766086 1.0057642414785424 109 100 93
-0.0548296408448005 -0.1125176251420734 0.8637430926462628 110 104 108
0.0854575354014215 -0.1013262874583469 0.9118000292656067 60 57 52
-0.0477113234961177 -0.0497268094383690 0.8339674103266690 56 63 89
0.1943783072073557 -0.0479793064584207 0.9363395146556464 45 39 53
0.1907688749925228 -0.0460338875428783 0.9345097570154888 102 97 103
-0.0125284104341524 -0.0408273415923311 0.8441494545647106 37 48 68
-0.0623662025616338 -0.0393154167600874 0.8242382037838426 36 47 75
0.2020026394869624 -0.0400609111026005 0.9372039126240603 55 49 61
0.0018370516413947 -0.0368780881276051 0.8491286778543236 49 57 78
0.2341782044375401 -0.0331849463339299 0.9496353866188531 58 52 62
0.2263133106749078 -0.0320421957558159 0.9452617403877901 55 49 59
0.2251362874839656 -0.0325253867514807 0.9423127968733934 59 58 76
-0.1592080939096629 -0.0110286808482568 0.7996907753234589 25 49 75
-0.1060835504709403 -0.2249527216912023 0.8967443767797432 93 89 90
-0.1001469531919292 -0.2235175383851290 0.8917190115192497 32 49 79
-0.0636994392757652 -0.2208726168100525 0.9056633118841114 32 46 73
-0.0265212495396771 -0.2226015671089401 0.9226323960911825 32 52 76
0.0114070656328978 -0.2233410956950137 0.9358667624003870 93 98 104
0.0038254017277333 -0.2180604366271574 0.9330621051920335 94 98 107
-0.1458740762371540 -0.1936258784159856 0.8496287716280875 24 46 69
-0.0104244695399330 -0.2086876427437299 0.9217401094766761 109 103 103
-0.1382551425251442 -0.1856353882363355 0.8552775956356118 50 91 121
-0.0173608066722594 -0.1920499905526299 0.9116951709855896 68 79 97
-0.0147573722355461 -0.1884748817608106 0.9084057309820039 137 137 147
-0.0152716295686775 -0.1869650431984744 0.9103780316072585 70 79 86
-0.0093352176492977 -0.1868760252905942 0.9102132500494554 91 94 99
-0.0447862617146894 -0.1651853542674832 0.8863128066346977 44 62 86
-0.1369744703022903 -0.1429338480022732 0.8372376042128362 19 32 51
0.2129529970266746 -0.1316253694254038 0.9774438160393921 126 115 109
-0.1353635868652886 -0.0952268815822404 0.7862191100933479 35 96 140
-0.1260970677283065 -0.0893777166840224 0.8105020593321550 45 88 120
-0.0583806120095466 -0.0617093113071883 0.8346076840665527 39 53 80
-0.0813928131957034 -0.0592173286365532 0.8247628117243535 33 46 78
0.1862857149107573 -0.0526948007825603 0.9351434492863274 34 32 45
0.2102003161539671 -0.0509608162276515 0.9456756104838250 63 59 73
-0.0946120672656111 -0.0396669331946568 0.8110873311119700 45 56 84
-0.0572026901324627 -0.0385321946697244 0.8256526117868810 37 54 82
-0.0977630040729405 -0.0380756352877522 0.8088668494252642 69 72 89
-0.0998080449401996 -0.0334894025314486 0.8070366925743110 22 38 63
0.2428226214658097 -0.0312472447604705 0.9475492370107406 51 49 54
0.2929955218801633 -0.0190083629729381 0.9678678322233966 86 88 87
0.0857191348653883 -0.0178888453593575 0.8844445012955322 82 90 103
-0.0953046923094820 -0.2262677505294731 0.8961884391998310 94 89 93
-0.0953181026899550 -0.2262265251162820 0.8961701415118678 100 94 98
-0.0890652201502025 -0.2229340123280366 0.8961735954835007 30 47 73
-0.0382378812581196 -0.2237650537679136 0.9184047962690411 103 98 102
-0.0586817985605503 -0.2186921085604555 0.9061844216444380 97 95 96
0.0338577281658104 -0.2258060755206511 0.9548458969173677 94 97 104
-0.0392690720083946 -0.2153343110211060 0.9121790754473672 97 88 89
-0.0860460363869577 -0.2069815039738800 0.8895243306012650 106 100 104
0.2959783348299739 -0.2122957768953723 1.0525142004922312 89 87 90
0.2912647516988067 -0.2127989672796570 1.0609771118994358 48 60 76
0.3085805938899625 -0.2010822892035700 1.0523678867685848 40 46 60
-0.0287249419032484 -0.1714010883012219 0.8961835455936297 97 115 139
0.1146827879104485 -0.1758247248307110 0.9589794900762667 50 46 47
0.1115806633923733 -0.1701543217671956 0.9549189653528689 132 122 123
0.1105602312373925 -0.1693433820083139 0.9517241854516877 89 85 86
0.1156783059515002 -0.1632423642234349 0.9528095753573432 67 59 80
0.0854116281528942 -0.1592238280726114 0.9382528121604823 67 59 80
0.1747731224150439 -0.1476915068485074 0.9771487465132684 109 100 101
0.0054988020540145 -0.1381326495615524 0.8941193266731242 134 109 102
0.3073968063338656 -0.1427265678110818 1.0262248532995459 65 66 70
-0.0848088870177749 -0.1207875055722041 0.8492965077343998 22 23 25
-0.0450127594567786 -0.1060602100881114 0.8556754882961625 34 49 70
0.0304935768173213 -0.0982790136064469 0.8871688724573635 119 105 104
0.0903774932379300 -0.0654074633052622 0.8967483259968743 184 170 157
0.2547599875591802 -0.0635847960878837 0.9673383974915505 45 64 81
-0.0463137731919791 -0.0544167774954198 0.8360241036680593 45 50 72
-0.0895603826482924 -0.0512315500306209 0.8163976568952203 41 55 81
-0.0622080373845580 -0.0510776252061642 0.8288317230842306 29 46 74
-0.1035013789450965 -0.0481691040850789 0.8108630542629480 73 81 92
-0.1034831686010224 -0.0480237362042140 0.8109300834869397 60 75 96
-0.0754771165169804 -0.0378423035065452 0.8167098393860759 31 43 67
0.1964318959941982 -0.0372375567250573 0.9335977832212915 121 110 106
0.1965283026122814 -0.0378031090343636 0.9332266860657280 90 88 99
0.3343005975981894 -0.0291362082257667 0.9877367650768368 94 89 85
0.2694189971489795 -0.0209041572855380 0.9548297328116153 91 84 68
0.3403887962022323 -0.0046805506199844 0.9770164830443946 142 129 112
-0.0692311436591567 -0.2243403680805895 0.9070321448578541 100 95 92
-0.0905774152932551 -0.2133937821274833 0.8912928014510603 29 46 72
-0.0974447950934317 -0.2063892009315842 0.8838536238191724 103 94 97
-0.0974177755714578 -0.2063373108152370 0.8844276787911393 103 94 97
-0.0563421087056039 -0.2062779690709795 0.9013124405465930 106 97 98
0.1038086919189013 -0.1556891765435085 0.9447799289403390 208 186 162
0.3121531120275268 -0.1507993583808398 1.0326569504553329 39 52 68
0.1918525420587451 -0.0667857649802547 0.9424850844509244 54 69 90
-0.0678853171892330 -0.0602264769552078 0.8299513080893943 43 57 84
-0.1048776970962424 -0.0549422967912211 0.8124645459023813 39 55 80
-0.0681770150574757 -0.0520048613377960 0.8262551251937091 41 55 82
-0.0517243904687012 -0.0511278755766808 0.8329585016372864 28 45 73
-0.0113625557395300 -0.0483346669476594 0.8483081687569251 52 66 93
-0.0696722763704484 -0.0351067500974578 0.8204672472088733 36 51 80
0.2639831492633206 -0.0337639883202463 0.9605656303292834 112 101 97
-0.0236577554034557 -0.1948576782625182 0.9095330485664135 43 60 88
0.2366016930945069 -0.2098381261080584 1.0341576522073628 75 81 93
0.0378554439283238 -0.1792803058738751 0.9291369838712976 181 169 155
0.1714447135830296 -0.1483609636912693 0.9590146426510099 113 107 109
0.1728683581789412 -0.1378722422593990 0.9645496042443285 55 51 52
-0.0803829000837606 -0.1187001686321335 0.8505882504489790 38 37 42
0.2052382461180053 -0.1301243944817414 0.9758876155534858 55 45 53
0.2632202930758463 -0.1134462467779634 0.9912436257089836 105 96 91
0.1947450115950388 -0.1019984114176236 0.9597881581323096 49 45 42
-0.0949439924815568 -0.0535052056141147 0.8166032584389372 43 59 85
-0.1634968620791517 -0.1962962953693640 0.8504402507622342 27 40 56
0.2060429095467955 -0.2092522985212486 1.0120339873576196 18 54 102
0.0101845138663472 -0.1663569132629004 0.9098999130055174 46 39 72
0.1015754364424194 -0.1658878603373518 0.9483712000171413 63 58 65
0.0923969050839120 -0.1578508834653796 0.9407937739500077 61 54 62
0.1729525276370474 -0.1543517174233205 0.9729822547807440 118 108 106
0.0973916947786991 -0.1430873402370292 0.9447331460140621 62 57 61
-0.0726646281074895 -0.1282251980332369 0.8600664849504593 122 101 98
0.0543105238402485 -0.1073551962660376 0.9006306851950694 58 53 50
0.2744458507977448 -0.0884418757493138 0.9886254125769095 99 88 84
-0.0039355622973783 -0.0575219167329925 0.8548758028126473 93 92 100
0.1697803960920680 -0.0379441686180027 0.9207617764142818 55 70 89
0.2702201816345016 -0.0291413633027370 0.9571098184683261 60 59 54
0.2301542984071574 -0.0232746344001065 0.9437613745504932 118 105 99
0.2478622877675605 -0.0243099445144955 0.9465237474263493 112 103 98
0.0460069861325689 -0.2365336570917785 0.9696014930995854 59 70 90
-0.0714420973500120 -0.1428470500945409 0.8642594270347175 73 68 75
-0.0718291418608043 -0.1416612515603421 0.8643879175300671 49 43 47
0.2197962884102788 -0.1372570637559112 0.9847679868646820 114 103 97
0.1733839252758734 -0.1122248282903993 0.9549628326396852 58 57 65
0.2814788645431909 -0.1166491434442669 0.9968131952875234 98 88 87
-0.1022871052374660 -0.0647953096124932 0.8178393261074898 96 99 106
-0.0779940133746513 -0.0639762585876216 0.8249699637351769 18 28 55
0.1920985184688556 -0.0477667402942481 0.9363896854598340 84 76 99
-0.0466565188738974 -0.1170302978669254 0.8628804282249239 49 44 48
-0.0658315235209211 -0.1029173313135246 0.8496882257394222 92 82 81
0.2060829678677093 -0.0928020216914224 0.9621949605613583 109 100 95
0.1985024745251341 -0.0736149336430284 0.9489575808357900 53 66 82
0.0204175174924697 -0.1706166832985083 0.9155787285313657 49 46 53
0.0121246928707828 -0.1450304933466840 0.9013064215363557 111 106 103
0.1327484181638243 -0.1203453952682605 0.9413016877588937 48 46 47
0.1401702069994930 -0.0960796540832807 0.9340060975687733 123 109 106
-0.0149709250378730 -0.0798478002978036 0.8608177218758588 25 45 70
0.1593668468780432 -0.0829926440611420 0.9348506535420300 44 43 39
0.1626225758801708 -0.0838696984073305 0.9484872230816733 57 53 50
0.0990109588017401 -0.0685831002501553 0.9029848397481498 126 109 102
0.1796011642128798 -0.0637110616487265 0.9333379638519769 155 152 161
0.3020024214016830 -0.0326681722106394 0.9757484714133056 101 97 96
0.2233862398029222 -0.0793223212596215 0.9570983160184031 55 67 81
-0.0900209897251960 -0.0484023935247804 0.8407199987021197 38 55 83
-0.0468932971218346 -0.0884541565457700 0.8533665976024040 28 46 70
-0.0205031904577930 -0.2246377599392040 0.9269138835907548 106 105 111
-0.0405487026697630 -0.2225102122485693 0.9155227199927819 112 113 117
-0.0690099534953802 -0.2155740865420366 0.9001938630423865 39 46 72
-0.0446599320264520 -0.2161828890111509 0.9088081398103071 105 109 110
-0.0530122322638532 -0.2056121340442300 0.9026697171698529 29 29 41
0.2107265610547338 -0.2088856929494173 1.0175291578860630 111 109 120
0.2253863087539695 -0.2039415394833441 1.0209143532012934 100 104 116
0.1675983395045755 -0.1706852833280905 0.9787865349237413 115 110 117
0.1283179864041023 -0.1379919651055267 0.9480234891152011 148 130 126
-0.0538896105326312 -0.1126966810793642 0.8595184102052758 98 96 99
0.1737345164735222 -0.0980468918284177 0.9486716381117267 172 154 144
0.2023120057662476 -0.0959339776048165 0.9638884976263149 113 98 93
0.1953351169762025 -0.0954515569550135 0.9568589910898802 126 113 105
0.2019121212200437 -0.0950075858071065 0.9601716339401435 171 156 137
-0.0002704387025207 -0.0656915511703137 0.8606384086124792 97 104 122
-0.0225723810537927 -0.0628824619070305 0.8503633802294839 1 21 46
-0.0478918356055569 -0.0648017277708518 0.8396716894988998 62 88 125
-0.0760096345406594 -0.0603132680160562 0.8263149776872212 28 38 65
-0.0232751382023147 -0.0575023476776066 0.8465745258893035 118 120 132
-0.0219865208321214 -0.0573271505156885 0.8489200563921017 34 33 47
-0.0190843375073205 -0.0557510069992904 0.8490882360869715 28 31 50
-0.0154378171608710 -0.0551233399855437 0.8494612622261452 32 43 65
-0.0162684294167465 -0.0539607107676776 0.8490350509083576 100 99 104
0.0011952025805077 -0.0511405364839410 0.8544842312981110 118 123 142
0.0012131173415277 -0.0509894101926234 0.8538410900409141 104 119 138
-0.0732230617425458 -0.0473654976628872 0.8224558243165674 100 112 124
-0.0448132141025396 -0.0464874081392630 0.8339060947524971 93 106 122
-0.0428194115875728 -0.0462935427258295 0.8341000146710098 20 34 69
-0.0413468746123759 -0.0452819401509765 0.8345019508462582 102 109 117
-0.0820168080588906 -0.0451400316669603 0.8194322219648765 12 18 34
-0.0185750997125194 -0.0444947714710010 0.8437054309875250 102 115 131
0.2300450983528718 -0.0386350589720996 0.9502423346024558 120 109 105
-0.0783028772702402 -0.0439566077676850 0.8196901765947567 91 98 117
-0.0786997171741007 -0.0439462748284541 0.8192492348108629 91 98 117
-0.0918336046814976 -0.0436161469620727 0.8134970312164977 46 44 57
-0.0254374210822566 -0.0421019733845985 0.8383740807130706 111 113 126
-0.0659393946299369 -0.0404688814835586 0.8227998652078190 39 51 67
-0.0806947457996631 -0.0423365593236950 0.8173660164250460 98 107 124
-0.0773253248247319 -0.0423047492649096 0.8182592967456959 94 98 110
-0.0349664115218787 -0.0415311538329283 0.8357408989904187 28 38 63
-0.0011424965461685 -0.0377668417419460 0.8464461797190819 109 119 131
-0.1008327125733155 -0.0391919471804852 0.8080759803722243 100 106 122
-0.0339643944231469 -0.0372663994411445 0.8349352015828609 88 90 103
-0.0957571990921397 -0.0382181424048399 0.8096439517820057 41 53 77
-0.0516418500628622 -0.0374437894379883 0.8278136425836470 112 121 136
0.0080426473823395 -0.0355269407103507 0.8524722284071271 108 112 124
-0.0510922146559596 -0.2232818904910190 0.9123347025743339 11 23 39
-0.0825423671321165 -0.2201925639521319 0.8983211512509218 14 20 44
-0.0761791207858501 -0.2203588305521969 0.9002828863234185 25 31 53
-0.0355351761248990 -0.2226554992986265 0.9189905099242479 115 109 113
-0.0624764215479530 -0.2192588477507939 0.9054192457277829 22 34 56
-0.0341767219968173 -0.2203287841448213 0.9182239233220957 31 41 66
-0.0593110947111437 -0.2135488106887918 0.9042329602524012 24 32 55
-0.0464280977281210 -0.2130751838385306 0.9079374157630041 23 34 56
0.2080724427004575 -0.2092530196908086 1.0147289628043497 48 54 66
0.2172937399806846 -0.2072102124207317 1.0165430804965097 48 52 64
0.2157333207943445 -0.2033873789386969 1.0096552079896375 55 54 68
0.0785229798981729 -0.1803365095256320 0.9462547839392614 111 105 107
-0.1908945130349003 -0.1573232364411481 0.8175648220103767 204 187 180
0.1229047646911205 -0.1710657839646605 0.9593422900950518 59 48 56
0.1204767376709411 -0.1705883463066998 0.9584352610130622 132 121 119
0.1568748564836856 -0.1712473229968134 0.9741223358629296 45 40 47
0.1545227050208475 -0.1710133402942033 0.9731021586138522 117 113 114
0.1420224225022165 -0.1671174592049239 0.9662520637094557 134 124 125
0.1293573395573071 -0.1660949083024021 0.9601121161348954 125 115 123
0.1574823032374329 -0.1653275740921993 0.9713670818131412 109 107 112
0.1523900231674859 -0.1648937753734375 0.9693004605159783 111 106 112
0.1654617054041321 -0.1644615278113208 0.9745428931691925 93 92 106
-0.0841755325474209 -0.1369442839701805 0.8573089085506327 19 13 17
0.1354630907903710 -0.1384675513669011 0.9505227818511672 50 36 33
0.0903509069141725 -0.0870981550294952 0.9087412967710964 44 39 36
-0.0851384016691800 -0.0689443136705061 0.8268358999779221 90 107 123
-0.0732817800726005 -0.0687142236834616 0.8309666244682289 94 112 122
-0.0890494594529829 -0.0660893847398760 0.8243437329589596 39 49 74
-0.0397078924829705 -0.0651310721183132 0.8447040931808188 103 114 132
-0.0244956033142158 -0.0638411536530484 0.8498078276364208 101 97 96
-0.0880578288311811 -0.0631326092113501 0.8231144537436036 94 97 106
-0.0934577533283217 -0.0629088849953714 0.8210165609029793 94 102 121
-0.0844714336301836 -0.0625317165072991 0.8245918757841700 94 102 113
-0.0112373455690799 -0.0614555661925983 0.8541808871514615 95 102 112
-0.0113024238674503 -0.0613334224479408 0.8542764129132013 95 102 112
-0.0083648960445120 -0.0607454120911939 0.8556535065227000 139 142 149
-0.0158004535100482 -0.0605979361343678 0.8523241655884805 43 58 81
-0.0140495536386522 -0.0602927138113644 0.8527573272237768 122 119 126
-0.0844167828126832 -0.0597902816115980 0.8231302763711061 102 108 108
-0.0306325929905582 -0.0571245109594100 0.8438622356339388 94 102 115
-0.0176048960721051 -0.0561193840000251 0.8489956157568633 118 119 124
-0.0173418441734681 -0.0557957643825132 0.8498236765681664 101 105 114
0.2374800248212646 -0.0531613459408105 0.9593648034289108 115 106 107
-0.0483177247660049 -0.0558681172835125 0.8361248772841012 106 110 122
-0.0447687514405664 -0.0548014117860068 0.8360421219512300 101 105 116
0.2375748219976534 -0.0472251815975793 0.9563509513542015 112 101 107
-0.0870597840460219 -0.0488985164810513 0.8174605592258480 80 98 122
-0.0549532620000062 -0.0474792349491482 0.8299144652434832 89 105 130
-0.0463468605118354 -0.0468521504562847 0.8326733997566357 103 112 127
-0.0341516960354164 -0.0461044722569377 0.8401568768990625 100 111 131
-0.0923660988070005 -0.0466487084832254 0.8142305662679010 98 111 128
-0.0908043943222686 -0.0467350180816192 0.8154105572856827 13 21 44
-0.0638277096147789 -0.0460410446733770 0.8265858024574045 51 66 95
-0.0737700304987471 -0.0456155421766180 0.8213700067073562 26 32 56
-0.0737049646320814 -0.0455067403992559 0.8216495577148574 26 32 56
-0.0944073586103262 -0.0451478559578991 0.8124549912666725 27 41 68
-0.0547639028898693 -0.0441240328226996 0.8302017110164456 98 105 123
-0.0933680244039371 -0.0437289988983901 0.8132581189974842 95 107 123
0.0025953560408129 -0.0418604396901782 0.8520767559885347 55 56 76
-0.0896667384710439 -0.0434328946522064 0.8139247552031180 99 103 112
-0.0056448371023388 -0.0410335261997704 0.8498673016004229 96 110 123
-0.0382241590398288 -0.0415219150304366 0.8348155470485731 37 45 66
-0.0396336657011740 -0.0399868162809681 0.8341938278736036 98 104 118
-0.0058124451024009 -0.0393137198435187 0.8483624225213450 107 121 134
-0.0601530880455179 -0.0401620147919909 0.8248817806524606 40 48 67
0.1937214928620837 -0.0348422911827246 0.9320547510352296 117 110 117
-0.0541732335907787 -0.0391562323100530 0.8280670669974002 101 108 124
-0.0598360694816264 -0.0382606790975012 0.8243331849104558 108 118 128
-0.0424335605467043 -0.0369910952269223 0.8309244597908073 93 107 116
-0.0986574406947661 -0.2254417528193096 0.8931756634738686 28 44 70
-0.0582631418999564 -0.2235024651135320 0.9094176519536037 26 39 56
-0.0732710722441049 -0.2200804912509228 0.9012509692915844 13 22 53
-0.0817953118417557 -0.2072019124350176 0.8911439688636844 46 51 81
-0.0389052005873729 -0.2088017707446028 0.9107866335872195 103 98 104
-0.0693031107304974 -0.2051274057799045 0.8952878389269214 106 96 104
-0.0049114753849171 -0.2050921328240206 0.9221311526289905 74 88 101
-0.0455685234608102 -0.2009332394059720 0.9033885379081477 25 37 61
0.2962578212801593 -0.2067960494944280 1.0503123618784473 49 53 65
0.2994937949788277 -0.2054696722215966 1.0514675292924314 94 95 99
-0.0185189365683737 -0.1725327668242460 0.8995194515274123 73 82 91
0.0873011146847871 -0.0649725964897883 0.8975041213038450 177 162 155
0.1355373750846668 -0.1701092511796273 0.9645322678114089 48 41 49
0.1352783163485154 -0.1703121087725026 0.9644691920787797 48 41 49
0.1241554175481409 -0.1687516984374724 0.9590409063672172 126 115 111
0.0738270419903872 -0.1571310871830743 0.9352301572163693 58 53 57
-0.0133318091680810 -0.1360639791764863 0.8864032985188747 35 33 36
0.1980627243280897 -0.1063881333569075 0.9634484886859899 114 103 101
-0.1276468447482621 -0.0839457515697993 0.8157089965578677 56 94 115
0.1746918948310948 -0.0818877015231226 0.9418828940724203 51 45 45
-0.0910524957627936 -0.0688863990090186 0.8230086564573444 118 124 140
-0.0810807807793113 -0.0679641542822537 0.8278444592409878 86 96 106
-0.0894019010194709 -0.0668014703052365 0.8253132615040842 42 53 81
-0.0829337316016880 -0.0648692606854295 0.8259930044895706 32 46 73
-0.0866196906087212 -0.0643880763953780 0.8239806784640336 48 50 73
-0.0609172585665535 -0.0642468671176157 0.8358290191021706 94 104 116
-0.1057876632426352 -0.0612772352557611 0.8149023310366790 97 111 122
-0.0959325041143268 -0.0609548960127938 0.8185564834758853 82 86 95
-0.0500611346444051 -0.0587528743821601 0.8362879779399149 99 106 125
-0.0373480879733582 -0.0563240083943168 0.8427821264365186 19 35 61
-0.0258126637146211 -0.0562631091423786 0.8456056659578617 28 42 68
-0.0743781481205643 -0.0566967310929768 0.8255880722522562 47 55 78
0.2176482315056806 -0.0483466525163137 0.9460083146816872 118 109 114
0.1963762977001846 -0.0461947941065361 0.9332102390542358 118 112 116
0.1738581210476147 -0.0462923904595549 0.9278638244573724 141 129 129
-0.0871963322158726 -0.0461576794169585 0.8159689559023646 106 106 116
-0.0602301051514937 -0.0454509369359015 0.8272169046007101 40 47 75
-0.0792859762059450 -0.0457040478674279 0.8194644716236855 50 55 75
-0.0333966422018380 -0.0437451084970404 0.8373873986793089 95 102 112
-0.0885292393960115 -0.0444990979284274 0.8152931566363111 32 36 61
-0.0656694088325718 -0.0434075432410858 0.8243208286207602 110 108 119
-0.0040731200942922 -0.0420514807214243 0.8489041908267141 31 32 52
-0.0848486984528172 -0.0436324753462876 0.8158495005839120 33 42 59
-0.0612829404432865 -0.0418217688433672 0.8255699242822531 99 108 117
-0.0489655619383582 -0.0392724167218785 0.8285553936279387 42 53 81
-0.0456966583103371 -0.0391104310068617 0.8298418640165687 33 47 73
-0.0032222692904047 -0.0360786623698204 0.8462202925682307 34 46 70
-0.0537533391756495 -0.0370581793087853 0.8269965085117164 33 43 70
-0.0594006461603218 -0.0354782095027544 0.8241441319544459 103 108 112
-0.1179675503724695 -0.2462740021599797 0.9092622666524829 41 87 113
-0.0838546399885408 -0.2270903867525968 0.9007182151135549 104 107 114
-0.1554303104986760 -0.2199001072716761 0.8661675153930908 25 45 80
-0.0888758694030686 -0.2185829701110068 0.8936145146913721 112 103 104
-0.0208945372140485 -0.2138491420119712 0.9200556018801558 32 50 72
-0.0813982444764955 -0.2071569499310041 0.8913660888042191 23 31 52
-0.0059890622241858 -0.2093582845275434 0.9235704522804264 33 48 69
0.2066476354756604 -0.2165324317939915 1.0193747984227592 108 109 111
-0.0337522028406909 -0.2027072579067987 0.9099993303870458 111 105 105
-0.0082424181664491 -0.2026438878304763 0.9196551058386752 100 103 108
-0.0093889879560303 -0.2019940105820515 0.9193620095476738 99 100 104
0.2638098533860027 -0.2147461957873305 1.0429354620737281 97 105 118
0.2565342804880554 -0.2071484585531943 1.0353126719249832 81 88 98
0.2127111339627957 -0.2031671532234711 1.0152418309900353 53 64 82
0.2398712235470276 -0.1980783926709712 1.0244883751915952 101 101 109
0.2644693858479293 -0.2003660704875971 1.0349890654365204 50 58 77
0.1480736463900736 -0.1714268269533051 0.9708565707906440 121 115 117
0.1449253352058946 -0.1682501984569786 0.9676059926674518 59 57 60
0.1787650209773871 -0.0241666993812011 0.9211787885620298 50 71 102
0.0981678744512551 -0.1543350109783895 0.9414237622969779 119 110 113
-0.0665179509629674 -0.1362950279477841 0.8649407503873761 34 35 39
-0.0906940777380118 -0.0627487013517284 0.8218596017291830 38 48 73
-0.0457607989349468 -0.0621533876787462 0.8396061942068979 97 100 107
-0.0824695374601867 -0.0612637056550901 0.8243604423535590 52 64 88
-0.0823852134311150 -0.0613806684160525 0.8245821303377900 31 45 72
-0.0628212298879234 -0.0615102196762921 0.8325316020285374 107 107 115
-0.0426787530394618 -0.0603394013644787 0.8399099842167022 39 55 81
-0.0426804412721802 -0.0604130294536849 0.8395915000474599 39 55 81
-0.0343174338439341 -0.0603047900708224 0.8440380426473042 96 96 106
-0.0638136403664385 -0.0616442615611128 0.8322109468755182 99 103 112
-0.0754060199033788 -0.0566592848115361 0.8252330956476227 48 56 77
-0.0453187780770477 -0.0558903115963450 0.8376840611664969 92 95 102
-0.0974293992593848 -0.0457269103919154 0.8118789218445658 99 102 107
-0.0518653147258192 -0.0394332214654724 0.8284775953440994 33 49 75
-0.0401003533463974 -0.0382774662587723 0.8328628668917566 35 49 75
-0.0402370376620500 -0.0384946911463345 0.8323210103677966 35 49 75
-0.0888449053979858 -0.0384502532227937 0.8128605330046710 38 45 73
-0.0889770988270691 -0.0383107778777539 0.8127499547843713 38 45 73
-0.0178338359342485 -0.0354431866316076 0.8406482981232083 97 98 100
-0.0329288675703538 -0.2395408696064345 0.9342062918115267 72 83 101
0.0107234640208746 -0.2152177111357798 0.9404318043713292 78 81 86
0.2287840120681612 -0.2157954665505823 1.0267100803462306 101 103 102
0.2728829644200857 -0.0691077123160325 0.9788324366153831 43 61 75
-0.0591408768050713 -0.0663006942205678 0.8365702517981075 27 44 70
-0.0560324395802959 -0.0655587374230577 0.8363141539625665 89 96 106
0.2114005958991020 -0.0402117807744257 0.9423069015896023 59 53 67
0.2097764180605333 -0.0326603736301413 0.9376702096594882 62 56 66
-0.1537583010038119 -0.2117863793209082 0.8737104561105611 37 80 114
0.2969853226913806 -0.2019391977178683 1.0500546240409445 77 80 85
-0.0551612139235202 -0.1113216618499728 0.8579916563676883 103 94 99
-0.0550807946955573 -0.1113774640259578 0.8582032076103510 103 94 99
0.1730325970177746 -0.0798263104675026 0.9398824709944050 122 110 112
0.2102885229303652 -0.0512694138134877 0.9461043098692962 63 59 73
0.2914349665702202 -0.0496738669170798 0.9795739005337611 32 53 72
0.2987198844112731 -0.0481758722719886 0.9782589119672993 40 57 73
-0.0300579847991934 -0.0450836166420474 0.8391508085264496 29 48 80
0.2470921339400787 -0.0370849782066926 0.9532016714293428 115 104 102
0.3228672673550277 -0.0537584208555434 1.1266558111105609 65 63 87
0.0361950608009824 -0.2331076867312674 0.9607270206936659 88 95 101
-0.0337167101769829 -0.2151110450007263 0.9153467579233270 34 49 72
0.2168106086899046 -0.2018282937782143 1.0128529213354520 51 53 66
-0.0358188347416982 -0.1870806563128287 0.9001316996242751 53 70 88
0.2023566817308853 -0.0962499387237134 0.9599629492385710 145 132 123
0.1792885696637109 -0.0818501023977778 0.9427971843511648 63 55 53
-0.0235651447161282 -0.0638787759502346 0.8496875733744047 71 85 98
-0.1034150404903482 -0.0482729213557291 0.8103755488171029 73 81 92
0.1963965104253307 -0.0371953353635467 0.9336267619832350 121 110 106
-0.0413072217890732 -0.0504703946752104 0.8370602425418194 39 56 86
0.3342849290172291 -0.0444229264481577 0.9957117944876116 91 87 86
-0.0025447733848435 -0.0498041971012533 0.8512300174394672 53 64 82
0.2612116483299853 -0.0270763663509842 0.9564704601449496 64 63 59
0.2640781144243341 -0.0250709920448768 0.9642411843733698 56 58 57
0.2919871297203936 -0.0119378187099372 0.9679080139257117 115 111 110
-0.0203816854012905 -0.2090472004731697 0.9180952385653809 48 61 80
0.1436514964574291 -0.1763556981770923 0.9715190302809587 52 50 51
0.1732951367556327 -0.1380300371513675 0.9646597779370193 51 48 43
0.2111017324693261 -0.2101737251967102 1.0164327726210745 119 117 122
0.1562047596490308 -0.1577009442921725 0.9675352143773133 52 47 51
-0.0777279744778213 -0.1180764066288011 0.8505987570685979 34 33 38
0.1758064045135693 -0.0971607700024812 0.9482074279968635 115 101 92
0.1855555062448919 -0.0277112355042411 0.9243937805382624 122 113 108
-0.0718450086950837 -0.1278764677468121 0.8583794468687483 104 94 92
0.1984317732631481 -0.0750008854394851 0.9464058449069667 53 66 82
0.2594737574663060 -0.0712662362056086 0.9761045624404796 30 71 115
-0.0766564243568563 -0.2143899969621622 0.8994147915277731 93 88 92
-0.0491802857361019 -0.2112282137434502 0.9104452801100045 72 76 79
0.2675244036679017 -0.0526725715876497 0.9694010324085962 109 99 97
0.1094493774905328 -0.1863095434559683 0.9627275535948793 59 55 54
-0.0206413934692908 -0.1069576859301624 0.8703078306775522 116 101 98
0.0676962044465036 -0.0605878267191571 0.8789281866916024 65 63 64
-0.0450031499608683 -0.2197160544154797 0.9130899635354862 116 107 108
-0.0813289778024979 -0.2162315196031136 0.8965768035419938 42 44 59
-0.0443674827941322 -0.2162770741546071 0.9117819224422655 112 124 138
0.1500645779424792 -0.1702765017953831 0.9704487839298513 46 38 49
0.1389137252966826 -0.1663476896818848 0.9634530339801098 122 110 110
0.1705002655109699 -0.1654891489653486 0.9775340757413195 35 36 54
0.0871578285294039 -0.1544310751355003 0.9381413890739826 138 124 121
0.0976740241514589 -0.1537954561193130 0.9409869274262375 119 108 112
0.1990727844256764 -0.1344959031769491 0.9742705537494719 127 113 112
-0.0864087288023141 -0.1228422612003801 0.8488509920612235 37 23 23
0.1736642329217145 -0.0907532749572748 0.9433198635021975 122 109 103
-0.0024313573829594 -0.0653768031221985 0.8586525192975252 121 130 139
-0.0008985951132349 -0.0644109997923903 0.8591317602200742 40 43 60
0.2469847679090944 -0.0437158700068899 0.9611922468497940 118 112 116
0.2454024686600869 -0.0453304082639700 0.9568280783454615 118 112 116
-0.0250174730943118 -0.0594488079533893 0.8461104231123412 32 43 71
-0.0030696972133522 -0.0559968359463411 0.8538210991031123 27 26 44
-0.0009662129590526 -0.0529639248608766 0.8553041020777710 118 119 124
0.1864461840597830 -0.0416771310435739 0.9306607265332009 53 47 51
-0.1025993473017544 -0.0507611305938182 0.8118761398478749 28 45 73
-0.0015081777336798 -0.0420574355574054 0.8499625882914130 108 115 125
-0.0323026967568333 -0.0425746093399477 0.8376135041964280 30 36 52
0.0081516718734066 -0.0368903005746294 0.8534360008142239 109 111 126
-0.0362986915471250 -0.0391495429157365 0.8346561211760043 26 33 51
-0.1834624586469476 -0.2170190404613934 0.8469601776153096 45 76 97
-0.0865452890631390 -0.2161336183047637 0.8939299228327411 43 53 78
0.2173626515064367 -0.2170221948550255 1.0251805783714631 97 107 116
-0.0735100587077957 -0.2114964344313648 0.8968278343055865 38 52 78
0.2212178080079012 -0.2120979621840341 1.0247387406710735 105 108 117
0.2138799290983265 -0.2107805453187304 1.0197285561838612 106 106 116
0.2138430717500632 -0.2108283564676156 1.0196569583807842 106 106 116
0.2378493689798114 -0.2097631034749081 1.0296638816485841 100 103 112
0.2179135102471342 -0.2061823593423552 1.0185155165813637 48 52 64
0.2494632461343405 -0.2042658780538708 1.0318500711392584 38 49 55
0.2390719699274607 -0.2047042734014843 1.0246778354162438 111 113 110
0.2146502507280388 -0.2042031713928009 1.0140492653229740 118 119 124
0.2169845124241708 -0.2014824635051103 1.0162132466087126 55 54 68
0.2937349733923650 -0.2012645754052295 1.0486387158372650 45 51 67
0.1518822563082096 -0.1744049632818516 0.9746379669317263 127 111 111
0.1662300419080444 -0.1742957025601706 0.9782288174628518 96 97 102
0.1284240551729691 -0.1728026054249797 0.9627256810390376 118 109 110
0.1680303746640152 -0.1719353529502426 0.9801125689826949 50 48 59
0.1506938443521649 -0.1717115393320305 0.9720608337779700 116 107 110
0.1510632780047537 -0.1683176588713168 0.9704632086444682 118 112 116
0.1486517595978097 -0.1661063948426099 0.9714084532941880 110 102 100
0.1669250145548016 -0.1658879061309387 0.9756993128256286 54 46 67
0.1630868493630149 -0.1642930456536644 0.9737843415006735 53 49 63
0.1650136587068842 -0.1627729040300118 0.9743996821105055 61 54 62
0.1704795238932248 -0.1617826638971378 0.9798717348528595 50 47 58
0.1676090393038872 -0.1621525807257702 0.9764772492920480 61 58 65
0.1805326418415708 -0.1470761012701033 0.9496210121649209 171 156 137
0.0172999700030393 -0.1104390585032338 0.8868764392286549 112 104 102
0.1171138478960415 -0.0897373654186840 0.9195097383117860 45 34 32
-0.0785807070023907 -0.0652436406090369 0.8275116439467876 110 109 117
-0.0019234502159276 -0.0609811251090019 0.8562849706683847 141 142 144
-0.0306965632067201 -0.0591381212414404 0.8415427049462770 102 105 112
-0.0889056951346854 -0.0590061595692710 0.8201668397420739 45 48 67
0.2630119595323804 -0.0271672716637746 0.9645260317978421 93 93 91
0.0076686720042029 -0.0436536433035410 0.8549966338292825 115 125 135
0.0026025822754009 -0.0416542988678330 0.8521676509872138 55 56 76
-0.0450906705130239 -0.0451452437761225 0.8332716876180360 20 31 53
-0.0058610109556857 -0.0417417237653848 0.8466741656058204 108 108 116
-0.0057456418619073 -0.0406944718205058 0.8489851379459542 108 108 116
-0.0738501947301034 -0.0458394765621683 0.8218827275051040 37 44 60
-0.0718791081674388 -0.0433373600896769 0.8222126479209149 108 112 121
-0.0977802219290948 -0.0446563772635177 0.8116788160007015 107 110 117
-0.0010991736403693 -0.0362937467672207 0.8480916916431279 110 113 120
-0.0864027620969891 -0.0421908807406751 0.8153549564571668 107 112 118
-0.1034671664896633 -0.0406292912695423 0.8075528417513257 100 110 122
-0.0746916167994609 -0.0382714653729191 0.8182963541041044 102 104 117
0.0392389407159423 -0.2306936798488334 0.9571724415934740 69 77 88
-0.0509302021603686 -0.2228813682849553 0.9126054810630753 52 68 102
-0.0183350884040958 -0.2243502747197459 0.9267334549856350 31 46 65
-0.0178340762466328 -0.2188964457360281 0.9249848613854793 30 42 56
-0.0176869521488260 -0.2191611174565035 0.9246261592546816 30 42 56
0.0189603235203497 -0.2180590720717308 0.9389216550864832 66 74 85
-0.0861033842460918 -0.2125195731766415 0.8903175596428697 21 37 70
-0.0772231998901746 -0.2115837814769348 0.8955077607285897 32 38 74
0.2192334662149160 -0.2151373545007140 1.0244929144184189 52 61 78
0.2636061014887234 -0.2153768825697570 1.0426770617277794 95 104 119
0.2068054322502213 -0.2133381710925254 1.0192431064010754 121 119 124
0.2057628204940307 -0.2109454170827798 1.0148847186757100 115 112 123
0.2083493271518828 -0.2075440171070043 1.0155261393310924 55 56 74
0.2310814116680202 -0.2064895905134447 1.0250302172902102 46 49 64
0.2408730814112909 -0.2066887159456174 1.0290945458773535 101 102 104
0.2400417337612697 -0.2072312496334092 1.0267498542694951 101 102 104
0.2225352473958570 -0.2053518690867256 1.0207569084318393 50 56 70
0.2390207273327777 -0.2026649263110626 1.0236786433953968 103 114 116
0.3021554898820434 -0.2020660787531608 1.0530939609845904 55 59 70
0.2726072323934681 -0.2000004907804812 1.0382208403540649 115 116 121
0.1524572575272017 -0.1729129080026901 0.9731215169539478 58 47 63
0.1224408548632392 -0.1712247329419899 0.9597417151414137 58 44 57
0.1542300468818244 -0.1710845376525009 0.9733231988795881 117 113 114
0.1324122021924736 -0.1701017880374527 0.9641222979220843 135 121 121
0.1111627246772775 -0.1669086093462391 0.9537876381166227 128 111 104
0.1158827780481446 -0.1670373441253418 0.9548602853603526 133 113 115
0.1207183944242351 -0.1668188354366628 0.9569596713276627 122 110 110
0.1450239363486311 -0.1652189774753062 0.9664226469077780 130 126 125
0.1722354334624284 -0.0817939836983867 0.9403158216388884 113 111 96
0.1717995543894866 -0.0557365284021003 0.9290743113365810 108 97 95
-0.0780852173387799 -0.0651027871099636 0.8375165293121057 103 108 114
-0.0263788869985600 -0.0635861790868502 0.8476025313804831 47 62 85
-0.0872255859363938 -0.0662480660804944 0.8246368977107535 101 107 121
-0.0194864628342543 -0.0612100764925854 0.8514250503325893 19 31 53
-0.0197565829958745 -0.0617358677311073 0.8504022031654588 19 31 53
0.2402869086406170 -0.0450390354317302 0.9584467184143964 108 96 100
