ply
format ascii 1.0
element vertex 691
property double x
property double y
property double z
property uchar red
property uchar green
property uchar blue
end_header
0.0533806301819717 -0.0932908438032800 1.0654520473155802 217 228 168
-0.0506260987514090 -0.1504029163765961 1.0616781125020363 154 133 66
0.0864974124235539 -0.0910538286252061 1.0739031292581742 50 44 18
-0.1076241077356865 -0.1063598502969950 1.0226100599111108 67 71 34
-0.1724626622609667 -0.1580184957207200 1.0660273097776742 201 216 209
-0.0789587726689390 -0.1685271759322637 1.0500385699951780 174 170 96
-0.0151451163595508 -0.0938424274106834 1.0562065816509845 215 208 136
0.0967816788053861 -0.0894604806954666 1.0758493727416165 39 38 10
0.1159297152264654 -0.0876076766915319 1.0816665493239630 207 215 166
-0.0771268245373309 -0.1678554954405164 1.0520731922026840 35 27 6
0.1379720762107407 -0.0867369038639923 1.0867803023484881 207 216 151
0.1517303504126174 -0.1246358828106140 1.1491665236067972 133 96 44
-0.0559779042726914 -0.1020461478493565 1.0332912374214502 27 9 0
-0.0557877097613595 -0.1004977429626678 1.0373300571635455 27 9 0
-0.0580631320675976 -0.1511774786817152 1.0560048854966457 138 123 58
0.0509291492159614 -0.0921708813241865 1.0642370635793494 212 221 156
0.0509757966075937 -0.0921806046548500 1.0642585769719377 212 221 156
0.1081359588698841 -0.0879814436641604 1.0794191927313921 195 203 144
0.1075079737593995 -0.1510523902571030 1.1183323906443212 83 60 26
0.1353395127428529 -0.1367410556958479 1.1602729529492908 86 4 0
0.1282386147618639 -0.0861969938621762 1.0839208673553364 77 85 48
-0.0855917126487230 -0.1051885044846517 1.0224781994757213 51 48 15
-0.0446547487568012 -0.1611301280183439 1.0719550969938993 25 13 0
-0.0461305017983318 -0.0989989143130524 1.0393062961346591 35 18 2
-0.0809584075716165 -0.1675169071619813 1.0496885879847522 42 31 11
0.1918835077324329 -0.1379823684850117 1.1623259831452295 162 2 4
0.0952940952968051 -0.0886304826920200 1.0753480098660950 201 205 144
-0.2552146346617736 0.2569005657632955 0.9904985891394176 110 100 109
0.0984789032234783 -0.0884398398761438 1.0756466985436550 189 200 134
0.0427212335804366 -0.1495931231583814 1.1073276608524172 202 197 115
-0.0754170095692474 -0.1047093531161070 1.0243942391577561 27 22 0
-0.0283084131002441 -0.1562957696046065 1.0806479122034729 185 168 98
-0.0311907305829841 -0.0949885600542033 1.0490665544774684 28 21 5
-0.0283117092721146 -0.1562776539354289 1.0806719601244499 185 168 98
-0.0500949964165926 -0.0994728613532407 1.0359502565800571 152 133 64
0.1159265566199717 -0.0861872391485492 1.0814006958481768 210 209 161
0.1266014139659973 -0.0855121622249390 1.0833360115641624 213 224 168
0.1541257751432553 -0.1209021139717648 1.1429547357541123 137 97 45
0.0531962932520262 -0.1480214761391946 1.1096104675012726 227 230 163
-0.1458496369306980 -0.1635919166929171 1.0425248531008078 250 254 255
0.0692568310355428 -0.0901629681333962 1.0674102749071743 212 210 136
-0.0474239428324449 -0.0985154176196377 1.0380504142333420 141 129 77
-0.0932913540312992 -0.1647326325712607 1.0427314595635859 44 33 11
-0.0930205107429342 -0.1644829950680279 1.0438523796934620 24 16 0
0.1012296064689352 -0.0870279127301802 1.0762454553284408 43 38 8
-0.0697468425313342 -0.1614455251939820 1.0537758532450847 163 145 73
-0.0744991744058154 -0.1033424733855559 1.0247374437264769 210 213 142
0.0629368154983828 -0.0897241707597096 1.0659700726557420 201 208 141
0.1884450559171459 -0.1339202237065751 1.1567562812081804 132 8 0
0.1210611129860879 -0.0850639610914796 1.0818965266356178 69 59 24
0.1482284227640792 -0.0833892012577947 1.0883613214360370 136 50 23
-0.2549764109796017 -0.1151165416568323 1.1069144334984728 118 7 13
0.0020466019628534 -0.0906971551935379 1.0564582053864449 44 48 23
0.1279667151019984 -0.0842827853257093 1.0831467790138460 45 46 28
-0.0314275722747981 -0.0932721013993003 1.0477049074705631 17 9 0
0.1352066761072468 -0.0835443534912084 1.0846846616875205 67 59 23
0.1403233496552181 -0.0826283544121285 1.0864713715906453 49 40 7
-0.0783859125769964 -0.1612395329332659 1.0481913000805059 163 155 93
-0.0424490434593909 -0.0957172574350194 1.0401638209592985 147 130 76
-0.0345442259014945 -0.0926832196793509 1.0449439545862163 145 122 68
-0.2266753005528948 -0.1177627124755374 1.1439707881247965 118 7 0
0.1211839765480095 -0.0825940753818941 1.0813636488135243 35 39 12
0.1209769592944755 -0.0823745776518703 1.0820082672723328 43 37 3
0.1417783141008181 -0.1205358878347469 1.1792600628629646 106 42 17
-0.0602833354995191 -0.0993449967826391 1.0287042449543018 169 164 100
0.0075423412658915 -0.0889436279085564 1.0565356360622165 21 22 0
-0.0371781225770722 -0.1398183949448254 1.0675516645321350 135 117 53
-0.0318746790697479 -0.0919154370488130 1.0463247963873621 161 141 80
-0.0680429445319010 -0.1578725789676706 1.0537266704862027 149 145 82
0.1279352940195587 -0.0814217702510034 1.0834819225218382 42 37 15
0.1981405945342117 -0.1172130763677472 1.1490866871025818 202 137 55
-0.0659297585343174 -0.1576523350004062 1.0542831338091099 43 27 12
-0.2587430934169960 -0.1155703222958831 1.1026437867545777 102 0 0
-0.0413369311892088 -0.1523379385753171 1.0696385697149289 156 133 63
-0.0656724911500079 -0.0996739085277575 1.0262770464746371 29 18 0
-0.0864103831027251 -0.1482619169933332 1.0387627717588341 191 198 128
0.0019445954950772 -0.0882690523358885 1.0554313607354748 61 61 25
0.1184589484213296 -0.1349823117527573 1.1316957667770200 162 133 67
0.0658352400582051 -0.0864096142948215 1.0646463194826636 49 48 18
-0.2320103618404701 -0.0607069901469966 1.0961297925852171 195 73 96
-0.0736922418056113 -0.1572972595509018 1.0489028216075471 169 158 96
-0.0708620172444592 -0.0994442783497483 1.0241897936873057 24 18 2
0.1932035917254915 -0.1183196660679420 1.1450875538186664 162 98 11
-0.0736640617105927 -0.1571950781799926 1.0489736617282426 169 158 96
-0.0332735185882661 -0.0912427024487529 1.0451133511786876 36 26 1
0.2026694952590300 -0.0615785348300868 1.1306693509488019 202 108 56
0.0181150558189495 -0.0878147591310715 1.0567131039606168 55 52 17
0.0218504640583012 -0.0878515902239259 1.0568688733468321 47 51 14
0.0663654730200835 -0.1419865456315046 1.1037189023398490 235 240 182
-0.0433267473535833 -0.0934525596155327 1.0386005200544772 138 126 66
-0.0431713176142736 -0.0933436682706793 1.0386366211663227 123 103 52
0.1406563486313209 -0.1167436302351049 1.1398397627241983 139 98 46
-0.1582031287185608 -0.1505971399233987 1.0488163144489111 254 254 252
0.1381299420976425 -0.0794641514528214 1.0848403566339255 225 234 189
-0.0298907773003137 -0.1454179039240527 1.0745757267895226 38 30 11
0.1623621994842405 -0.0753859181295937 1.0965578379816181 167 133 62
0.0821691884269679 -0.1392332761608630 1.1012495303370087 226 236 173
0.0642994484029382 -0.0850968572894441 1.0644053196641805 207 212 145
-0.1692701638351955 -0.1353510481512503 1.0588721761449251 253 255 254
-0.2369076618495667 -0.0982261651735740 1.1654804652123907 161 34 19
0.1020883472469649 -0.0817765339485082 1.0747208421689500 36 32 7
0.0623974390771519 -0.0844635958876447 1.0636218138010158 46 42 17
0.0860418243350606 -0.0817324892122162 1.0700866282491743 36 30 4
0.1407084554025648 -0.0764204843807030 1.0854651819375005 212 213 153
0.1406249100781211 -0.0769826937170580 1.0847379988270456 210 209 145
0.1822541951553938 -0.0673017162568518 1.1096802367261398 138 117 64
-0.0909192229379283 -0.0978851774357087 1.0203108405501318 26 24 1
-0.0733692191535481 -0.1501807247166794 1.0459620992644687 17 9 0
0.1264652363028507 -0.0769631870916977 1.0816688363261520 207 213 139
0.1174228511002832 -0.1321869034688220 1.1111318413337545 153 129 65
-0.0006486263183560 -0.1316414328929839 1.0828264472423321 194 192 109
-0.2158036954127988 -0.0950831285768547 1.1661143348415770 81 1 2
-0.0046595117712400 -0.1369422705974591 1.0839779967431933 200 194 106
-0.0668942647617947 -0.0959293055679566 1.0237925246735957 28 26 0
0.0049108242117920 -0.0842629568039385 1.0536229472385881 223 233 164
0.1438038836106006 -0.1194120189992183 1.1448253047996844 144 101 48
0.1436842367047939 -0.1199433826990725 1.1439156148136862 143 90 48
-0.0861828446825794 -0.0966613588130344 1.0195904965991911 20 21 0
-0.1205177297863262 -0.0937937196022515 1.0231125227260272 72 76 53
-0.0929196351711306 -0.1510335588642475 1.0375680691669440 47 41 17
-0.0530119014796030 -0.0922191710716471 1.0305085547190680 41 21 0
-0.0529397997425937 -0.0923122886060290 1.0303105985729333 41 21 0
0.0842139935835756 -0.0798222180476853 1.0685227941569426 202 203 133
0.0842018886007241 -0.0798116686289361 1.0683131785441842 186 192 130
-0.0709870165142744 -0.0949826779531706 1.0224268330286608 32 42 17
-0.0188796185194339 -0.0838765680122450 1.0489722922337454 56 40 7
-0.0188883114572273 -0.0839279986742078 1.0491648985974356 36 29 10
-0.0553858439109455 -0.1447570902652940 1.0546163261695760 25 18 12
0.1644066597352594 -0.0698124162690721 1.0959891701390629 123 41 20
-0.0153014950363394 -0.0832671213682514 1.0503538722398349 57 49 12
0.0908576946864649 -0.1337785500898342 1.0982039805677775 216 222 158
-0.1016755502072807 -0.0942553380386962 1.0202407314114483 235 243 183
0.0298924884883478 -0.0821100859018676 1.0555242471200779 28 24 0
0.0030115400691528 -0.0821946785033205 1.0525176699562215 233 237 178
-0.2074274044959749 -0.0695011733993737 1.0639185749198805 62 24 1
0.1252190227116251 -0.1267858752801994 1.1177022215737105 150 120 58
0.1100442002353933 -0.0755614709607304 1.0757126915948414 53 42 12
0.1100810539741063 -0.0755721609396810 1.0757130961590029 53 42 12
0.1073360818575114 -0.0758429279890541 1.0748731339215065 49 52 23
-0.0575315742212237 -0.1442948883825485 1.0519821539321874 140 122 56
-0.0018465175961744 -0.0815247406220255 1.0513185856413447 226 231 165
0.1432148455960475 -0.1141614299836608 1.1362505801617877 130 89 37
0.0480008761365781 -0.0803057824613997 1.0576437257817912 58 54 29
0.0526698316405120 -0.0798841519776962 1.0589286164366933 61 53 30
0.0013256545905414 -0.1334116224187834 1.0844119807283650 34 32 9
0.1208143087157900 -0.0741409666210737 1.0787546749002892 200 213 160
0.1552090374439167 -0.1132997821534524 1.1501441655896836 150 99 52
0.1099873875903288 -0.0737952148913132 1.0751527272839201 202 211 154
0.1099974023872685 -0.0737538063357577 1.0749024195983030 206 205 123
-0.0930223277193335 -0.1476658473360421 1.0362472858551885 43 36 20
0.1504099700569862 -0.0692568404650394 1.0887575844185220 182 120 79
-0.0189510611232117 -0.0812212440588549 1.0476295672762204 21 14 0
-0.0190279725247080 -0.0811345427318187 1.0479728435909386 39 33 9
-0.0032881800660065 -0.0803649879548238 1.0509384521224829 26 32 4
0.0511067082965887 -0.0786344666559056 1.0583038960217752 201 211 151
-0.0151169182692630 -0.0808420570541050 1.0487286151509854 35 32 1
0.1985062465525817 -0.1123400551966026 1.1457879909677515 186 121 29
-0.0152181909183236 -0.0806688197248726 1.0486367262264114 13 2 0
-0.0711570554235117 -0.1446722059910608 1.0445276304711839 154 146 84
0.1457312108097829 -0.1157942468687926 1.1398308217668032 101 18 4
0.1672333369720077 -0.0658201667325570 1.0958925549666421 170 118 70
0.1725950740655700 -0.0638308168067031 1.1009382661386067 169 107 60
-0.0847648146601040 -0.1463564150998155 1.0386317366098874 42 38 9
-0.0847407832589367 -0.1460308881381042 1.0387105105581245 33 27 0
0.0853852757021312 -0.0756082496824601 1.0675264035024197 187 196 133
-0.1147171557108003 -0.0887382719507361 1.0199370720123773 87 91 56
-0.0316753624674617 -0.1362871433509385 1.0675105160150031 133 123 62
-0.1124853712587735 -0.0886929211306732 1.0198269156114053 67 74 43
0.0917894910984567 -0.1263896624122464 1.0937268149422621 208 214 140
-0.0576514426632549 -0.1407721929884393 1.0515041069476989 135 122 70
0.1283945093815058 -0.0676774409685420 1.0800946257712243 189 191 128
-0.0575671277939107 -0.1407477871584392 1.0517887245240973 135 122 70
0.1232784895630256 -0.0678388802452426 1.0783368280567782 188 199 143
-0.0575688224435647 -0.1382534813648879 1.0500784715992879 143 127 67
-0.0225902164558633 -0.0780355840920089 1.0438835493391005 35 28 2
0.1092976297489247 -0.0691510581860683 1.0731611647089525 198 199 131
0.1119346205155492 -0.0689012324240785 1.0736008235042485 196 199 132
0.0968338627364498 -0.0701297529572548 1.0693929490139631 207 212 156
-0.1700261353278645 -0.1318595785476937 1.0609944475650162 254 253 251
-0.1129056713542278 -0.0856183322859567 1.0193271920554052 233 252 206
-0.1129059150860866 -0.0854626996455698 1.0198242306329546 233 252 206
0.1022504530092919 -0.0678920961866128 1.0711825903157259 201 198 121
0.1364294291026672 -0.0639462412916364 1.0818585375151513 61 57 19
0.1248585128405134 -0.0652214841224284 1.0781337056922731 178 181 126
0.0542471809585062 -0.1252517561372584 1.0892839925153672 232 243 174
-0.1173613732726455 -0.0834921661501708 1.0207770240598395 249 255 214
0.1483549858042680 -0.0606156224899717 1.0878745469150459 184 150 87
0.1813729778958964 -0.1125403546653521 1.1346180158236809 163 154 85
0.1480486908070366 -0.0606540402077141 1.0873892576794999 197 152 85
-0.0582760974545086 -0.0834994090299386 1.0222115649081631 49 44 4
-0.0714112840800904 -0.1389714175126358 1.0422933017367071 176 163 93
0.1505221394241336 -0.0603078147583719 1.0882082049115536 179 127 77
-0.1600145048967374 -0.0704978669048547 1.0416304837425099 240 255 253
-0.0559490852995910 -0.0829364919442354 1.0232071637542604 39 29 0
-0.1694475784795702 -0.1276010360594790 1.0571158691298599 254 254 254
0.0923523369601770 -0.0673058348667419 1.0674537017898078 45 41 3
0.0924347055498127 -0.0672663988013582 1.0675586729644244 45 41 3
-0.1592325167787394 -0.0708715745087495 1.0408075774060996 239 255 254
-0.1464852755854956 -0.1352401962401882 1.0379373718618670 236 254 238
0.1029693075536697 -0.0662920397459962 1.0701646210410638 52 45 16
0.1331698356711649 -0.0619572204126775 1.0802721470916281 56 50 16
-0.0409653038921095 -0.1309350094285326 1.0590060168919264 148 127 74
0.1135745757459005 -0.1229683072513494 1.0996673867663984 169 167 90
0.1719656093013197 -0.0521359856452658 1.1039485266334206 175 118 73
0.1014351731693867 -0.0650124380873782 1.0695589385275315 185 197 147
0.1233053927214669 -0.0627662506987593 1.0770401800938387 186 189 120
0.1366694528223861 -0.0608100070107076 1.0819756698088845 46 33 14
-0.0504904411628754 -0.1313705113722161 1.0607214558704510 144 125 56
0.0866886045307301 -0.1221898234415734 1.0896899403934173 211 214 157
-0.0554741953888748 -0.1348978122641488 1.0501325387413423 45 28 10
0.0832587765262769 -0.0667961137696613 1.0640467256021369 195 198 151
0.0909640173189119 -0.1217298083956849 1.0902680711715076 216 224 147
0.0936801785368496 -0.0656125368036647 1.0674257293055527 200 190 131
-0.0947160180640993 -0.1376294250871148 1.0321033129953860 51 47 10
0.0937603526848347 -0.0655260598359158 1.0675108587954205 187 194 143
0.1219171253888271 -0.0620069074416915 1.0763148861347958 19 14 0
0.0001642874433099 -0.0713406601426687 1.0457927188522291 74 73 25
0.1013547964062582 -0.0638959892897112 1.0693368044892355 190 205 150
-0.0590085573905340 -0.1315688694564616 1.0466107474207289 36 27 10
0.1013603289991208 -0.0639418667486598 1.0693094507644874 190 205 150
0.1237893338933814 -0.0612690959694105 1.0761840533824005 56 49 30
-0.0590756072568317 -0.1316512830613055 1.0466854559821608 45 30 9
-0.0579564351941102 -0.0804892499485408 1.0212013745218702 181 179 120
-0.0556103256389511 -0.1307911225242070 1.0478783689072610 19 16 1
0.0920882749162187 -0.0641155242906445 1.0667507786413444 47 50 19
0.1263537782455172 -0.1158168449586120 1.1029643071352382 137 116 61
-0.1095196561316630 -0.0801293085390071 1.0178451714681571 237 249 203
-0.0562705452159767 -0.0800807169620639 1.0219061713274706 181 169 95
0.0950066525364443 -0.0637159337694007 1.0672865173324946 25 22 3
0.1171720670125469 -0.0616803699228408 1.0731895596367047 194 198 122
0.1978061708077386 -0.1051086295607442 1.1362747199283814 124 0 3
0.0439967866401800 -0.0687969795137218 1.0517268592622648 212 217 151
-0.0030013096586160 -0.0698559269114229 1.0447836614036612 209 217 144
0.1744477407994802 -0.1073270669061983 1.1265974240545451 209 178 114
0.0816695273618164 -0.0642602217706517 1.0631083015513894 39 38 8
0.0350970848790271 -0.0686021141806625 1.0492766560424138 206 213 146
-0.0323176775970202 -0.1246828202089601 1.0622469843181956 35 21 8
0.0367868021387580 -0.0684335770782591 1.0497123640787054 54 49 20
0.1007499572681588 -0.1228297539042929 1.0935404977414089 202 203 135
0.1188680810258681 -0.0601980919253694 1.0737494225193067 52 40 16
-0.0889638253653251 -0.1386173908115341 1.0344255883771931 204 214 143
0.0907425084176355 -0.0626956865738948 1.0660420598315883 198 197 130
0.0988044981810433 -0.0618187758325730 1.0682471487118950 192 193 133
-0.0476936170402012 -0.1275590392939331 1.0525685106103231 39 21 7
0.0990036986058502 -0.0616510670881076 1.0685150791401954 188 197 140
-0.1110785883598344 -0.1343678877788415 1.0297475819197377 55 59 36
-0.1436154974669325 -0.0702327484302064 1.0319325300239481 248 255 255
-0.0653135480699101 -0.1312576854485374 1.0410051948452341 132 116 56
-0.1438185622475656 -0.0702165972137639 1.0316930509574467 248 255 255
0.1385675946743277 -0.0562654184534466 1.0817723593817608 162 157 91
0.0801547785774412 -0.0633437553748355 1.0617714701587775 187 190 123
0.0802878953100517 -0.0630855429196777 1.0620847252788319 169 179 129
-0.0947604964954969 -0.1341630104935758 1.0310002012597330 41 48 14
0.0004784282637709 -0.1195440953568643 1.0756130104667794 208 215 138
0.0016587931006136 -0.0680863118347136 1.0444574079968303 221 241 172
0.0017333453581413 -0.0681956910741628 1.0441629783078639 221 236 171
0.0303801195976546 -0.0673072159054975 1.0479988864924159 213 214 156
0.0411466328492640 -0.0669554887525106 1.0497850730953120 205 207 144
-0.0521112746179195 -0.0768278471647905 1.0224724680450807 179 166 87
0.1237067902382192 -0.0569645965793062 1.0759063809094351 18 10 0
0.0163591204666973 -0.0673448022598390 1.0453098487592258 65 71 37
-0.0016446225380044 -0.1168846316553236 1.0737064478378981 213 222 143
-0.0016215073168019 -0.1168558685832976 1.0736732683929464 213 222 143
-0.1045724446419967 -0.1315506654578015 1.0289696786692117 234 255 186
-0.1149712490144248 -0.0756138297635269 1.0182367025706947 53 58 36
-0.0372987493007936 -0.1284125902094440 1.0604500680575428 141 123 59
0.0501230213855577 -0.0649228779418215 1.0511664860223140 29 31 17
0.0559740067680289 -0.0641055216817178 1.0535649657865818 98 89 56
-0.1570247671905460 -0.1227653418579000 1.0441226110539441 251 255 255
-0.0373086754283726 -0.1278837371667466 1.0609606185722111 141 123 59
-0.0983352048513409 -0.1314398404433642 1.0289651522352410 217 226 161
0.0660132984332699 -0.0627722277251520 1.0567330390666494 53 45 9
-0.0787050904858154 -0.1296609859068829 1.0338123968170674 46 36 9
0.1036249481788361 -0.0584598469662400 1.0687949603966584 205 203 129
0.1648770009753051 -0.0465790612561584 1.0984082348521880 191 137 75
-0.0786460403004830 -0.1297988247383903 1.0340279492513100 11 5 0
0.1504678945643881 -0.1026859124107464 1.1214063525759905 156 105 58
0.0801906850132656 -0.0608169638881080 1.0613541975185150 188 189 129
-0.0009175854018036 -0.1237475514071047 1.0763661308257899 195 205 134
0.0851469127323958 -0.0602469709005388 1.0633248349535065 198 196 135
-0.1594955848484575 -0.0616687825681111 1.0413712972038480 239 255 252
-0.1594236170857056 -0.0617800867919236 1.0403812612679249 239 255 252
0.0934623333059093 -0.1215148744197664 1.0908561624510971 155 153 92
-0.0242366142153473 -0.1174095659732211 1.0643900702251881 154 140 77
0.1752708209414648 -0.1017052214171741 1.1225821795731934 205 164 102
0.1467102330715526 -0.0511089203110556 1.0854634779130294 163 138 74
-0.2504151934703818 -0.0939545070948266 1.0982557631913774 254 251 32
0.1717845735309391 -0.1025749189271511 1.1193662278451955 206 179 98
0.1721425811372931 -0.1023911298541392 1.1202780620815360 204 179 115
-0.2112664630308181 -0.0425400920076339 1.0755225595617552 212 211 219
0.0256953949494807 -0.0657825037858432 1.0457005838796409 211 212 154
0.0322122441134076 -0.0654065503494135 1.0472373524682907 40 43 16
0.1027850491612294 -0.1126650175833514 1.0886941193308002 207 211 150
0.0942963851192686 -0.0581825929318840 1.0657992247049546 207 199 136
-0.0618602626729341 -0.1327015765680677 1.0445901150665213 126 119 49
0.1560232558245229 -0.0466075892885159 1.0944174975018659 162 128 67
-0.0430474064949561 -0.1282687784374667 1.0564383124298409 145 132 64
-0.1102799142512899 -0.0739989471759550 1.0170058486623963 30 41 25
-0.1106849900841951 -0.1286412209585656 1.0285388216733664 239 247 187
0.0282649678823789 -0.0644322098906770 1.0461784690461089 214 221 167
0.1074338034225980 -0.0559864644576862 1.0697522285291263 56 54 15
0.1683259840371032 -0.1014961329804421 1.1196022053522086 216 192 130
0.1227002897613667 -0.0540797314484154 1.0751816666380498 51 48 17
-0.2099831065641294 -0.0378938297253216 1.0814338352923643 255 254 255
-0.0564758200066463 -0.0742778941841321 1.0185945356113970 13 13 0
0.0855400859041293 -0.1122601868901888 1.0832428287187457 76 73 40
-0.0535695573787035 -0.0737131146813276 1.0200528017078063 19 12 0
0.0938352260435265 -0.1117858164704909 1.0851829125951937 51 45 11
-0.0507366060859172 -0.0733468486413415 1.0211289425927039 42 35 16
0.0628188743372750 -0.0603603244148099 1.0548532205236156 200 201 133
-0.2558610219257531 -0.0831881788609574 1.1189070032070152 190 66 68
-0.1567092456464979 -0.0601048248570375 1.0387918770489908 240 252 250
0.0774995988021930 -0.1199772585704847 1.0864708949598276 212 217 151
-0.0899513201285885 -0.1274901486844931 1.0298597088669943 225 237 175
-0.1165535510704473 -0.0715867267102436 1.0179471115522982 241 252 209
-0.0522017831359627 -0.0724532924130173 1.0201346218315226 152 148 74
-0.0523137224179082 -0.0723971331414975 1.0204192775915966 168 169 99
-0.0899972193445671 -0.1275254461656756 1.0296823998831606 225 237 175
0.0666126996907416 -0.0592953463025149 1.0556123289417472 19 17 2
-0.0021657300304022 -0.0632116069941835 1.0409114765687391 57 53 26
0.2011742416484980 -0.0946240123961214 1.1374529065530867 149 19 21
0.0374614249191492 -0.0620224456979345 1.0464615318522421 204 213 146
-0.2058584125978093 -0.0361108414658149 1.0813738238833219 110 106 123
0.0157504814943494 -0.0626980977008921 1.0429009664478754 217 226 169
-0.2453387020360866 0.0043163277738005 1.1577375965103889 216 105 122
-0.0719481674100759 -0.1330193379585883 1.0395066427571817 169 165 91
-0.0506892291371995 -0.0714666356702603 1.0206108052835949 36 32 5
0.1351057251408278 -0.0487853174126335 1.0799060979350747 32 24 5
-0.0724455470856520 -0.1332238882459318 1.0399025063235900 153 156 87
0.1973919143595620 -0.0933207012797516 1.1347876062910498 199 110 54
-0.1133139934174373 -0.1257282842518224 1.0280658150681399 239 249 189
0.1575099036108513 -0.0420574111982093 1.0937361163927326 168 104 69
-0.0912823879671098 -0.1260402343668964 1.0289895992724709 49 48 27
-0.1142056055253892 -0.0693554519244835 1.0164765870462615 246 253 211
-0.1143805310758352 -0.0691290689807895 1.0168803342496400 246 253 211
0.1109674781534319 -0.1084983907043630 1.0885833225238546 213 213 139
-0.1103287662475254 -0.0695054818724780 1.0158176428454515 75 84 55
0.1109499676526772 -0.1086227574156430 1.0882757264538698 204 204 142
0.0528631225238676 -0.0576752972116873 1.0502362920983714 197 198 138
-0.0577671282288400 -0.0699425368949671 1.0166929087904466 185 185 125
-0.0244718008585869 -0.1207854102828018 1.0654892512764551 151 141 72
0.1831500043644894 -0.0957440855635692 1.1236491854348283 167 139 74
0.0317002493327819 -0.0592054481724627 1.0441599261198831 206 213 146
-0.0245201597854621 -0.1207191649920650 1.0654764734568212 158 146 74
0.1243308949792520 -0.0474341165484797 1.0747622918055075 181 180 124
0.0160102724544648 -0.0595995222687709 1.0410872097885846 58 59 25
0.0188129911229614 -0.1102717869432923 1.0712489848482059 220 222 157
0.1098490841033891 -0.0486716444972137 1.0692731563890039 182 186 110
0.0623008040058206 -0.0546388028261981 1.0530659280528585 41 38 3
0.1648831579714587 -0.0358844133456987 1.0992195629280139 165 130 64
-0.0330860614238860 -0.1138720359123692 1.0567402832089758 151 136 69
0.0319350009158504 -0.0577202505444123 1.0434537722221697 24 23 0
0.0923735737506132 -0.0500143262529103 1.0632103946788751 57 51 17
-0.0575933448355023 -0.0673225115554247 1.0159096168857444 194 202 143
0.0306036403156603 -0.0569977513373922 1.0427952891606349 210 218 141
0.0354883243838837 -0.0564957128757787 1.0440904305181384 41 40 10
-0.0882247282433473 -0.1228046792662238 1.0284259658888018 41 40 20
0.0388436871784356 -0.0560912740087856 1.0445114075582396 13 16 0
0.0899708390924796 -0.1066991337574499 1.0816085245517988 124 115 76
-0.1465881312437562 -0.0558688914134791 1.0322605084206682 245 255 244
-0.1466656194638768 -0.0560561512327909 1.0317585657375394 245 255 244
-0.0601405555861061 -0.1256590349859192 1.0426821977573335 147 132 65
0.0312063367244268 -0.1079857048326706 1.0712401209335720 220 231 171
-0.0518918027262244 -0.0660218647774795 1.0172620622887809 56 49 21
-0.0457225083272211 -0.1148807212991787 1.0477651397635164 40 23 3
-0.0518819623214848 -0.0661255535364774 1.0172436671831269 52 46 14
-0.1144796521063748 -0.1209560111197588 1.0268744821214497 240 250 189
0.0654198581848805 -0.0516333954332925 1.0539421140854552 191 197 133
-0.0931176557266380 -0.1216461491155827 1.0272754466007248 224 230 168
0.0973372020591084 -0.0474846973117798 1.0646240399266826 38 41 12
0.1113599742007629 -0.0452890054294768 1.0694667496319950 31 27 2
-0.0763834170192924 -0.1207813832636098 1.0309945827620899 45 41 14
0.0476133946223389 -0.1071875741060850 1.0730730942354869 221 231 162
-0.0558869364178525 -0.0656215263359487 1.0155584424069242 47 43 18
0.0703343021363503 -0.0510791415054636 1.0534814011421247 12 7 0
0.0706217241232092 -0.0506125756590133 1.0546530686124522 12 7 0
0.0282862925667246 -0.0549893011114523 1.0414223316479159 201 211 151
0.1844803259844400 -0.0921386926100328 1.1220986365454970 127 100 45
0.1207169107142882 -0.0428713844121948 1.0726872890626482 55 49 17
0.1204629851277963 -0.0431148535564373 1.0722906365972178 17 12 0
0.1230504073376852 -0.0426406738593772 1.0738993391560143 186 181 117
0.1230432764401918 -0.0427034497192725 1.0737284656001242 180 181 113
0.1228819627139283 -0.0426731880449275 1.0734081756700760 168 167 119
0.0860482340620229 -0.0475272253739147 1.0600941891148896 55 51 16
-0.0569255925435308 -0.0649808560646521 1.0147547179705587 202 199 144
-0.0869103233654296 -0.1209647017431983 1.0280152644905238 212 222 161
-0.0865529598136208 -0.1212404293073896 1.0273070957617516 218 228 165
-0.1473133203344687 -0.1144084670725390 1.0371473734578014 253 253 255
0.0921817967017177 -0.0462333192767178 1.0625773959549643 43 45 8
0.1055570473316777 -0.0443590666640299 1.0669625006005390 38 28 3
-0.0846692095133613 -0.1208351566738455 1.0281630218766780 202 214 148
0.0568952909608974 -0.0502069572640064 1.0491924820701379 182 182 118
-0.0765881952960279 -0.1281221429560390 1.0335899413356981 186 183 112
0.2013417067264603 -0.0854133384768734 1.1348969108794367 122 13 8
-0.0416897827180304 -0.1119372838367560 1.0490037743923191 108 95 43
0.0636818755902867 -0.0482209909508088 1.0515327220980044 205 210 156
-0.0417419219641472 -0.1117028271547734 1.0497904723585911 108 95 43
-0.0753369070702960 -0.1186414860079334 1.0308987718206393 192 206 129
-0.0497643463080621 -0.0616391711319288 1.0162888263325451 33 30 0
-0.1049372172683042 -0.0609677353242000 1.0134237731321125 28 38 3
-0.0831648220589434 -0.1191515620069667 1.0281159271414575 11 18 0
0.0547313188787920 -0.0485291694630179 1.0479883207661715 174 175 109
0.1779992710531537 -0.0901677342491945 1.1167243779397231 146 111 53
0.0051107594859750 -0.0521643915687492 1.0362591433560437 222 228 168
-0.1071472764501505 -0.1284419605474552 1.0283852831664435 228 237 180
0.0179023121115070 -0.0516975957315069 1.0377009401225483 214 221 153
0.0282880012602741 -0.0511179437781032 1.0399178755183196 209 212 155
0.1377451611758087 -0.0980757379929216 1.0938565274176875 61 37 9
-0.1070530679351252 -0.1284432424627139 1.0282292530133605 226 246 177
0.0366567020149914 -0.0502734333488751 1.0422898763484090 196 198 133
0.0500901389615121 -0.0472436612918051 1.0454296606618543 183 186 115
-0.1484581468384677 -0.1098414791507851 1.0372017755289356 255 219 141
0.0519680004022942 -0.0459115145086078 1.0466851730896596 34 39 17
0.0388116422693954 -0.0478258750788993 1.0416531669847671 194 194 132
0.0470501934669361 -0.0459747835142758 1.0443210982451052 178 181 114
0.0325218178439639 -0.0475440236203910 1.0395120969598508 46 45 17
-0.2719781360776469 0.0493634541006704 1.2043947774642960 255 247 158
-0.0113622935813925 -0.1030081768687584 1.0622192778982631 227 236 181
-0.0075453386870747 -0.0474260164784257 1.0324309724022862 220 220 134
-0.0085499429202960 -0.1027098106315771 1.0631454396154461 218 228 167
0.0257170618952511 -0.0455581823582489 1.0365649180563867 220 222 139
-0.0086086010888002 -0.1025865397532942 1.0631690075005653 218 228 167
-0.0678184030203856 -0.1141274663821642 1.0319382935999710 35 33 12
0.1795267181038266 -0.0857899311439971 1.1185015074558089 152 112 60
-0.1569835754997122 -0.1049242548672981 1.0422496119380575 243 255 255
0.1829550810949929 -0.0848699120694101 1.1171137604424877 171 139 64
0.1981243221326544 -0.0805119469802452 1.1292477407102131 170 86 42
0.0924437524501993 -0.0976323329939191 1.0780748827542104 207 209 126
0.0956508268313123 -0.1099116041983783 1.0848164838068843 213 213 139
0.0776275976155690 -0.1100395694221171 1.0802813335621937 204 211 143
0.0814686631918183 -0.0973621513384676 1.0745382984697147 213 213 139
-0.0474409869252672 -0.1057841986800221 1.0420460151001558 38 25 6
-0.0184452876832230 -0.0996285792044983 1.0584361747590383 184 186 102
0.0923758195047462 -0.0960988629200946 1.0770101085649264 205 206 128
-0.0805422940607756 -0.1114263403397452 1.0259254220965943 44 41 10
-0.1669003816171530 -0.1098986961597636 1.0525930149879941 255 254 255
0.0376838240152774 -0.0979181711397211 1.0652252682966508 214 228 167
0.0926385953317111 -0.1064347341502332 1.0826651166885002 212 210 135
-0.0291995726589007 -0.1000087138508438 1.0521131340678767 164 147 77
-0.0694039149688702 -0.1199118313636446 1.0339122309178039 167 160 90
-0.0949926873949351 -0.1101474028352465 1.0235814198597784 230 239 186
0.0486384038860697 -0.1069739322140675 1.0732220131947374 217 227 154
-0.1476485767666509 -0.1017723945229878 1.0359125632430388 255 222 133
-0.0475814265441667 -0.1134900887330128 1.0456261003914482 144 128 66
-0.0750779064599768 -0.1078856749348374 1.0261574055175819 45 38 20
0.1420504861558727 -0.0949227052692623 1.1053228788993164 172 131 65
-0.0910319801210901 -0.1085914277026513 1.0232191476269088 31 35 18
0.2001516504152980 -0.0716909371308640 1.1299972462022072 154 22 17
0.0400485270750959 -0.1052106385077068 1.0701795738612940 210 223 153
0.1482737207796365 -0.0858379781474049 1.0936848841062103 152 112 60
0.1193735536799863 -0.0891257435277287 1.0828028394480149 206 214 141
0.1242664860676635 -0.0885703058086548 1.0839820150160433 211 217 153
0.0814690622244693 -0.0917627046161004 1.0721927734292609 216 213 142
-0.1526248909073376 -0.1103078273381723 1.0395557551298473 251 255 255
-0.0515229776375945 -0.1014298748152107 1.0369749206006389 118 99 40
-0.0294396390936119 -0.0961644301756461 1.0501885345033219 134 119 52
-0.2181075431498114 -0.0653514379986128 1.1011886015707397 105 8 15
-0.1487482453915332 -0.0971958141306871 1.0363404427481759 252 252 250
-0.1401059001514982 -0.1118809145521960 1.0335561984678345 221 66 70
-0.0637877972878854 -0.1031099335243277 1.0287006991583723 167 163 100
-0.0637375083547435 -0.1030513494955969 1.0286322692071668 167 163 100
-0.0292428891237457 -0.1053746044627729 1.0551319832783723 153 138 69
-0.1595971915742613 -0.0928206987479797 1.0428139197809365 254 255 255
-0.1596630093905104 -0.0929096174198124 1.0429162883138894 254 255 255
-0.0002764064012933 -0.1024446824241791 1.0634697222793061 240 253 181
0.1192592430016557 -0.0857736996778976 1.0816323907171499 202 213 137
0.1152560175233907 -0.0978396639366915 1.0847050131437861 211 208 137
-0.2139440676060165 -0.0625588697564217 1.1038521073971912 152 71 77
0.0330360361452363 -0.1021600836421248 1.0663911157954944 217 228 160
-0.1565290236186579 -0.0929140978074571 1.0407014757561821 246 255 254
0.0533106796773122 -0.0898158229036580 1.0644863796064952 215 222 155
-0.1813597793648938 -0.0646804124537503 1.0981516197833476 243 254 255
-0.0295510474623284 -0.0928946763953721 1.0487243897244503 150 131 63
0.1198796140251909 -0.0966359426278600 1.0853741363586733 206 212 140
-0.0589729767205859 -0.1002862888722424 1.0297998881335837 11 2 0
-0.1528330755754161 -0.1051844607203664 1.0395874159449559 250 254 253
-0.1131588738151214 -0.1129370753343224 1.0251212646227081 246 255 204
0.1134816296877354 -0.0838699753819744 1.0796686104600643 208 212 138
0.0020950235170428 -0.1007957940541369 1.0625677017731989 52 51 30
0.0643038107638848 -0.0876509970756113 1.0655965176550923 208 212 127
0.0642786612855522 -0.0877346753935943 1.0652628629101413 210 215 135
0.2066313051355841 -0.0761665515985585 1.1375167317409784 145 25 24
-0.0639293273917612 -0.1003771234175719 1.0266816526897831 162 165 78
-0.0580810341450257 -0.1097644004129775 1.0360885781128302 32 25 6
-0.0150440801348128 -0.0998383789751586 1.0594475329311466 196 198 123
0.1358131255484922 -0.0800141640430126 1.0850456793283456 217 217 131
0.2044534528961338 -0.0613568102336986 1.1291251732046650 138 28 29
0.1188210290011139 -0.0933997784101858 1.0842204694244517 217 223 149
-0.1625867450907581 -0.0985594803143874 1.0460842694274040 255 255 253
0.0444992271339234 -0.0970912196662042 1.0656605453050698 222 224 161
0.0961156455811536 -0.0938733470454584 1.0775395333745221 191 201 132
-0.0795598707667044 -0.0985159695329786 1.0216530360208420 214 224 153
-0.0731777601977468 -0.1095753491130174 1.0274707266695933 203 202 120
0.0170242467014244 -0.0863352335906961 1.0555905052331296 230 230 168
0.0169536603303990 -0.0863863779191894 1.0555322042360444 230 230 168
-0.0770587139691984 -0.0981035415228071 1.0222634736578851 219 233 156
0.0562657239662245 -0.0968363190559851 1.0662957289125428 208 219 153
-0.1404703211025446 -0.1039633527315508 1.0324396957022735 225 108 90
0.0843276873276728 -0.0942498505811794 1.0737629430676938 211 214 137
0.0202118055482807 -0.0858903387497231 1.0556492333149128 226 231 165
0.0813301198053879 -0.0823643047777318 1.0686881648713746 213 213 123
0.1005341385248591 -0.0803926173380773 1.0738933120155438 206 207 131
0.1092467726043218 -0.0794062611747382 1.0766254737723016 54 51 16
0.0403892400516265 -0.0954344752745765 1.0636818554348646 217 223 153
0.1121255472893516 -0.0791854241990527 1.0774910410250398 204 207 130
-0.1556942190788086 -0.0861233141429839 1.0396695620349237 246 255 251
-0.0732986118265759 -0.1059790840668612 1.0257785574954803 213 213 127
-0.0048836408316271 -0.0842432949097734 1.0528346265928612 232 238 174
-0.1703875156015195 -0.0858584072273601 1.0614136982504487 186 193 185
-0.0019167994429970 -0.0842032114077837 1.0529220482593333 239 250 182
-0.1461184634552956 -0.0876204867159934 1.0339168555851659 250 255 255
0.1350386749624230 -0.0855719617347165 1.0859587731707014 213 217 140
-0.2441335994593107 -0.0288053365756813 1.1505492637058479 255 242 184
-0.0334348819752651 -0.0954885073173629 1.0475659142086930 158 138 69
-0.0491441488073994 -0.0906570475353620 1.0317634299500065 34 21 2
-0.0636671921965405 -0.1051864251125238 1.0223404055756455 172 170 96
-0.0445304716626663 -0.0897058761710274 1.0350921889725315 144 129 62
0.0375669094188220 -0.0825039607603417 1.0567166338055549 218 225 158
-0.0207960937247816 -0.0922854426082035 1.0538249222783100 178 175 120
0.0375506011738693 -0.0825157618742137 1.0565238591575403 201 222 157
0.0769280815996590 -0.0790853121138994 1.0652848884134911 193 200 132
0.1207196743106942 -0.0744155761806986 1.0789068181046129 204 206 123
0.1788873499930913 -0.0745310686495912 1.1101433006838430 161 123 61
0.0836585303341948 -0.0778153287408521 1.0676505931176041 51 50 22
0.0290654362639032 -0.0910638246713565 1.0597176925073852 221 233 169
-0.0287535054398423 -0.0844405120639257 1.0439924792199244 160 146 85
-0.0170835924289790 -0.0823264659658889 1.0488093171132757 189 200 124
-0.0169991937585469 -0.0822836289034002 1.0488254022649337 204 196 121
0.0507272782068324 -0.0802381941478293 1.0581451159925090 211 215 139
0.0680664696061297 -0.0783803499567380 1.0626651116682873 59 55 26
0.0680285004019162 -0.0782628939333017 1.0632672661693994 52 51 23
0.0914499383295747 -0.0758932097765706 1.0694710807310588 206 212 138
0.0400694417225975 -0.0904048760437287 1.0604668446228505 213 226 156
0.1623178629560158 -0.0790685971675377 1.0963744159153945 186 148 85
0.1048965187394047 -0.0741745972752317 1.0735814291923964 196 195 130
-0.2079701417892153 -0.0630505845354414 1.0720214162747241 220 229 234
0.1329677478061323 -0.0708799345439110 1.0816421603914275 98 95 50
0.0697213046676461 -0.0766086922085446 1.0627231993686843 207 207 119
0.1153513568909587 -0.0720909772024990 1.0765695336801235 201 210 147
0.1284744428156705 -0.0692522557436881 1.0804602461456954 204 207 130
-0.2152276376940271 -0.0538730283718985 1.1153549845736483 110 44 45
0.0941265180795856 -0.0727640543308364 1.0695059135516729 214 214 124
-0.1593786941433266 -0.0765157601348212 1.0415911683734442 229 248 229
0.1419755089841475 -0.0801850281546111 1.0862117836862626 206 210 126
-0.0862145969700432 -0.1008022590777859 1.0212862417121844 55 53 32
0.1694649876260523 -0.0736747121141198 1.1013352566867853 174 136 65
0.1357242091492508 -0.0660891078319465 1.0823200430023683 202 199 118
0.1357110693822301 -0.0661718448999740 1.0822279707328639 202 199 118
0.1046837203315263 -0.0818592036247051 1.0758878822118472 197 205 128
0.1811650885924275 -0.0687819650552404 1.1116579458650497 54 33 2
0.1153109847206408 -0.0682050687998781 1.0754042885004309 205 208 131
-0.0063518701306766 -0.0756671840500823 1.0475145794079062 49 53 38
0.1898776913333935 -0.0640716902110212 1.1181279371365456 139 117 59
0.1000880629174615 -0.0683178563380188 1.0702678740443634 189 194 140
0.1888792634505662 -0.0499685025483724 1.1161583539317637 141 113 50
0.1889478633720719 -0.0500190516709042 1.1160244767839280 169 140 62
-0.0510070493113056 -0.0904485354386315 1.0379811693719423 129 108 41
0.0270133393511675 -0.0743743323091683 1.0504173937250552 56 57 26
0.0269636174916802 -0.0744063649511067 1.0504071736145624 50 51 33
0.0938743245394216 -0.0687893563011398 1.0682700588866763 210 208 133
-0.0286243347252541 -0.0874899845735321 1.0466935023529931 155 145 73
0.0426748720517830 -0.0731299954283263 1.0531400668167639 41 46 23
0.0805048255564245 -0.0689684272081756 1.0637984856741201 207 206 126
0.1386321450432142 -0.0622099646679082 1.0828421703981590 190 176 103
0.0746370025771623 -0.0691162904088662 1.0615019636608016 51 43 22
-0.1088842358061256 -0.0830251389732177 1.0186172162893026 244 255 203
0.1597126431943308 -0.0563281288998708 1.0924026785360768 165 111 64
-0.2198380817332966 -0.0488506261830170 1.0762776705011861 98 25 34
-0.0507666293679347 -0.0800101026427249 1.0247687382390254 171 159 75
0.0904349351760801 -0.0647397872305349 1.0659117577661992 197 197 127
-0.1053050421897235 -0.0800646281502544 1.0171594788991913 234 242 191
0.1278424339339959 -0.0584049915467158 1.0778115895785076 204 200 111
0.0793189414368785 -0.0784850730461088 1.0663194638114322 124 115 56
-0.1093865940264918 -0.0774594811575257 1.0173429214561471 238 255 205
0.1411794591206757 -0.0720585599896547 1.0851507312843078 205 203 120
-0.1798057751921874 -0.0577705413863793 1.0497628849682410 182 180 183
-0.1566210692967948 -0.0637253173390260 1.0388713737806072 253 254 255
-0.2218832635646442 -0.0568896831785862 1.0861554122421924 202 166 150
0.1215524443886877 -0.0556598582693291 1.0750296375515602 208 209 129
0.1256046702401169 -0.0551818778204589 1.0766926722997234 206 199 129
0.0651060453324542 -0.0788316787326746 1.0618426805027441 197 207 134
0.1296065625155640 -0.0545443029440748 1.0779986206190497 189 185 114
0.0602247725681491 -0.0625003652194463 1.0546542301273560 198 195 124
0.0908400627017006 -0.0584381659849682 1.0648883099421331 200 201 133
0.0908770994378808 -0.0584335182020020 1.0647992275271732 199 197 123
-0.1447388844100830 -0.0655983437128376 1.0314496047645638 227 245 223
0.0775792660205661 -0.0765915686721775 1.0656153416318430 200 196 122
0.0783955378782224 -0.0594424970259009 1.0601706879205710 80 77 36
0.0928554543992257 -0.0566966054193393 1.0650750078001916 51 45 19
0.1424794627932169 -0.0690230620672120 1.0853248808516651 108 98 49
-0.0579106284017065 -0.0739233898679168 1.0182511841323774 202 196 148
-0.0334255390100504 -0.0821179115643147 1.0398941420732812 136 120 45
0.1874620821043839 -0.0354568395772956 1.1146521751834713 135 108 53
-0.1190512374664597 -0.0874288348231708 1.0216397514006010 251 254 201
0.1179731532123325 -0.0526585430297655 1.0729019151697341 176 181 117
0.1767144602046754 -0.0371314098598956 1.1081988654117767 170 133 80
0.1762850476315422 -0.0380903673756346 1.1062241834568998 170 133 80
0.0286703702328842 -0.0618222384753678 1.0451354291254611 199 213 152
0.0915411345351137 -0.0696881255151649 1.0679672267773683 222 217 136
0.1310442218097088 -0.0496271405259014 1.0778650006418771 85 81 36
0.0103115726237045 -0.0750559490205052 1.0489001092315580 46 41 9
0.1401820244250185 -0.0480170426919695 1.0821409871606131 100 92 73
0.0794144902381861 -0.0561453196508476 1.0597773724427433 48 50 13
-0.1058255332793907 -0.0714133980267480 1.0155375889094698 242 255 205
0.0844438275300345 -0.0555320321385602 1.0614488968317135 51 46 17
0.1106094536498333 -0.0523474370228275 1.0699845698075732 201 205 121
-0.2613374137052377 0.0136125304684532 1.1715424068648754 255 244 102
0.1448116185175601 -0.0616445952054557 1.0853973281301867 185 168 86
0.0726204354631571 -0.0565265036460483 1.0567710631096681 195 199 115
0.0589218627800125 -0.0711871876108725 1.0570119987727036 67 68 36
0.1821591333845788 -0.0342721442785018 1.1080303270696907 148 117 60
0.1647291614546209 -0.0381050551624403 1.0976705685000354 146 105 49
-0.1055045877852992 -0.0833911673089768 1.0178780981129272 240 255 196
-0.1152819067476982 -0.0668856442766519 1.0171607512693575 88 102 66
0.1295704255969741 -0.0621273008459870 1.0787264679409010 182 185 118
-0.1157668943891638 -0.0802940798942462 1.0196921988469840 247 254 213
0.0371238989373778 -0.0579783352859557 1.0450374889529075 212 211 129
0.0604338676205867 -0.0541794643912919 1.0532292986564158 186 193 123
0.0705101810529929 -0.0535935358530938 1.0553047993170284 42 38 9
0.1545236477634488 -0.0533706723227027 1.0913287185618978 168 128 67
0.1057958458752222 -0.0481363083724095 1.0677333897708365 54 42 20
0.1161092975417051 -0.0458273978249983 1.0712328575365562 173 171 97
-0.1057603754685310 -0.0771378778464734 1.0167281594408766 235 248 192
0.0925171266434397 -0.0605850472710236 1.0656072947849533 135 132 87
0.0640134728100056 -0.0526316721135544 1.0527212372918282 192 188 115
0.1016783975626976 -0.0589673689399941 1.0687503758782133 103 100 55
0.0639969819899291 -0.0526995968401171 1.0525794010965361 192 188 115
-0.2672506541506334 0.0218014470552834 1.2041042748980704 255 249 143
0.0688654539098852 -0.0519415583674574 1.0545127123532514 181 185 111
0.1197746282469414 -0.0448754487472528 1.0728418491454803 171 173 108
0.0723532743839640 -0.0514189043332660 1.0558535310171968 203 199 110
-0.2051564249261030 -0.0420953680250098 1.0745545423114722 254 255 255
0.0545430247112663 -0.0531491358657917 1.0493265969846257 194 195 127
0.0995586107983724 -0.0467236838290594 1.0657356009037726 204 204 108
0.0371312131548973 -0.0546369715823966 1.0437608379995305 204 207 136
0.0767956584548751 -0.0574113551653622 1.0595559309645910 194 195 119
0.0371454036706504 -0.0546314666591776 1.0438179715060947 204 207 136
0.0768452629563404 -0.0572488041213959 1.0597232096274487 193 190 109
0.1287325096179409 -0.0505141852477861 1.0773287931019211 167 172 108
0.0087060417065389 -0.0545892013847824 1.0381297015482160 214 230 167
-0.2207559312203874 -0.0346374095957064 1.0799901105351872 203 175 52
0.1798839779061042 -0.0245631093070615 1.1080830353390214 31 9 0
0.0644999107526275 -0.0570411585098799 1.0543523009733926 198 191 119
0.0644538239020692 -0.0569872498886211 1.0542650515841283 198 191 119
0.0326070890452869 -0.0601278864315474 1.0445357854850261 204 213 148
0.1070183295741855 -0.0503841446470482 1.0688233212027098 201 195 117
0.1034221705758366 -0.0504319918962775 1.0672217923215341 204 199 107
0.1400931062460308 -0.0446593940672655 1.0821081445119420 142 133 66
0.1605245886395874 -0.0386755876111620 1.0948284743482899 177 131 71
0.0292411119494561 -0.0569961344079109 1.0425422279636216 210 215 133
0.0764058572753858 -0.0499884430815488 1.0574746268504978 193 187 99
0.1037702362375870 -0.0465502715372852 1.0669571977379557 199 197 112
-0.2729351373901834 0.0399917946623343 1.2094977005310896 224 100 124
0.0762604823838153 -0.0476590031699027 1.0566270486381100 179 179 109
0.0401303100484289 -0.0510343412323432 1.0433128633341207 198 202 125
0.1335061866006079 -0.0361520799409764 1.0783082544666349 181 160 79
-0.2278301275912233 -0.0161488337533878 1.0894277079583965 255 255 97
-0.2278519662674827 -0.0108025638103535 1.0927524710341108 164 50 60
-0.2257449829118993 -0.0171083507591149 1.0800139360719934 164 50 60
0.0331069811815825 -0.0453453844617700 1.0388304341059429 194 196 112
0.0401504393382223 -0.0443332297809855 1.0410624961169790 192 195 114
0.0499181733148544 -0.0430795032994729 1.0442874371196242 192 189 112
-0.1160632712760451 -0.0474292381876667 1.0081808646942942 69 47 49
-0.2146974976558049 -0.0105532215880059 1.0676601180079779 117 93 83
-0.0441721426263074 -0.0401062196784363 1.0091917689974479 65 38 31
0.0731452841831430 -0.0211481190073566 1.0485053894274445 176 187 191
-0.1176009276259915 -0.0279233467481894 1.0121494226250458 240 255 255
-0.1948675205646442 0.0069854413275363 1.0615907746942426 131 118 128
-0.1221398999711395 -0.0089003002616131 1.0202146659160733 198 200 151
0.1803497090133586 0.0232697345121863 1.0929771264953076 28 18 16
0.1270985127075375 0.0173871579416841 1.0713775067599960 68 100 139
0.1806795647242500 0.0359124028081997 1.1045341415535492 101 67 30
0.1330433624958761 0.0210068249756189 1.0711101256722571 144 157 173
0.1342378656201463 0.0232426323704926 1.0755148380740940 144 157 173
-0.0702782750942795 -0.0126644826484259 0.9977717034620317 44 41 8
0.1840368679622092 0.0443655270994076 1.1076753079573738 42 28 19
0.1334499109743894 0.0293025803669265 1.0749259440513037 143 163 172
0.1322461008011902 0.0270289579469446 1.0707513668078228 143 163 172
-0.0845248835091681 -0.0038834554571044 0.9960039611201651 240 249 196
-0.0614536261549121 -0.0004639712845702 0.9980096881403768 180 183 112
-0.0661176017960742 -0.0001028942904208 0.9950827451735356 205 207 106
0.1312674382659871 0.0414799646691529 1.0738121145799628 21 49 88
-0.0621624317945032 0.0025297361183741 0.9948858127852703 182 191 102
0.1218602950917015 0.0456041328977893 1.0668137931959163 147 157 167
-0.1622496241874274 0.0396722385240324 1.0390963312770192 236 254 232
-0.1517982312316838 0.0260744724083607 1.0162779793349048 81 102 93
-0.0807349735381300 0.0097841498172274 0.9934781068543693 247 252 194
0.0676014754200032 0.0361971315089180 1.0412660917298169 168 181 187
-0.0896832986133919 0.0149659793836668 0.9987047781832796 255 255 198
-0.0897573585350116 0.0147571577412853 0.9986174029894601 253 255 206
-0.0866697944171757 0.0155690870751836 0.9975373813720997 252 255 212
