ply
format ascii 1.0
element vertex 708
property double x
property double y
property double z
property uchar red
property uchar green
property uchar blue
end_header
0.0610648384697024 0.0506159634817870 1.0081655037202288 94 93 45
0.0348927174990113 -0.0864963731936610 1.0015724291841137 45 31 5
0.0866898499551399 -0.0064379669662165 1.0228398809482411 208 202 128
0.1351343612763380 0.0473346479320142 1.0211824520003481 93 86 18
0.0898835632491699 0.0364300594883156 1.0126732012167605 226 230 171
0.1414623531139444 -0.0045201468383718 1.0439624642629914 57 28 0
0.1468520513702011 0.0371314278020807 1.0302382578045026 157 130 75
-0.0064205651037883 0.0508795206647254 0.9909009134313350 64 47 0
0.0088980203104436 0.0400571702598576 0.9993752864032549 151 133 67
-0.0493438994442966 0.0524954001695873 0.9835386047739241 235 242 190
0.0101812444309134 0.0535598352315208 1.0010805203708200 146 125 68
-0.0050396761926930 -0.1308180436532196 0.9910468151215817 28 15 7
0.1396701080122448 0.0083470921594828 1.0319970256771362 53 29 1
0.2166318394530759 -0.0402214352519144 1.0753639140417095 76 47 33
-0.0788063050179142 -0.0056784538785054 0.9783832904023335 251 255 248
-0.0570333978831601 0.0542971450450281 0.9854634188651773 246 249 196
0.1088488084122988 -0.0075714370273606 1.0225084469727672 233 240 172
0.1517032526197531 0.0143568066632567 1.0529306695280103 159 112 58
0.0917237155597859 0.0492713898209047 1.0120846869725970 210 218 159
-0.1519712490832223 0.0208254770411117 1.0440725187345457 170 18 33
0.1097379409621077 0.0487846604439217 1.0159981693065121 102 97 42
0.0146639298132908 -0.0063730719550623 0.9986801252322736 61 42 0
0.0088820699627449 0.0539787477076873 1.0008201615764694 51 42 11
0.0917038142777906 -0.0827429271570178 1.0312181572325954 59 44 3
0.0147103422055664 -0.0063458405758211 0.9987211249043871 61 42 0
0.1567312834098119 0.0017741655998198 1.0638584523074628 109 53 18
0.0825793776006135 -0.0047777610772315 1.0216105071560597 203 200 121
0.0825372402418483 -0.0048049173534738 1.0215939902670972 203 200 121
-0.0858537672298360 0.0507553591624964 1.0017413613791093 137 153 140
0.1646618057270338 -0.0356638465536457 1.0781599082358386 121 27 15
0.2048998532235978 0.0567788548466716 1.0616895536941615 202 99 54
0.1923792098044669 -0.0380586332375056 1.0745050719739599 195 51 42
0.1640010394724051 0.0411428907712485 1.0436870019128328 172 97 66
0.1174355288580736 0.0493609554955634 1.0185958828255004 218 216 139
0.1340522786221523 -0.0064210283448615 1.0302164342393312 143 110 43
0.0301366984952063 -0.0455244182497986 0.9984798978827825 216 213 132
-0.0223248467351495 -0.1273557241749544 0.9963293308063080 111 92 49
0.0186778571263951 -0.1226377496061388 0.9970583854346090 124 102 53
-0.0944985742431723 0.0536158027305550 1.0069104208960249 152 170 154
0.1484091243351462 -0.0358577933598158 1.0699161853002364 104 17 0
0.0230454861834083 -0.0049814773503766 1.0028270272083191 72 56 7
0.1455843627482571 -0.0357056902218285 1.0682209945244676 105 12 0
0.0224939618485585 0.0552387493750746 1.0060955859406346 93 88 33
0.0224274423760265 0.0551970775005227 1.0060161557922791 93 88 33
0.0956259149883999 -0.0051171606717809 1.0222055602327831 231 242 186
-0.0011649638882552 -0.1226442460129016 0.9869495434192967 113 97 61
-0.0043862445800789 0.0523061774101323 0.9916480094107996 34 18 0
0.1902116378146470 0.0407141614778528 1.0486685551471508 165 143 68
-0.0292496221402655 -0.0091650662907500 0.9749253583382667 194 192 115
-0.0035816609906777 0.0528026365852272 0.9930211806836824 126 107 64
0.1651502738215349 0.0412348889893570 1.0428661660941445 116 22 10
-0.1519377873632269 0.0223670840019292 1.0435628894317301 243 110 131
-0.0017962164096035 0.0526832372913407 0.9930954655608172 135 113 64
0.1568625290812053 0.0537029497407020 1.0388826252349344 124 51 18
0.1217411696923319 -0.0066266481298670 1.0224386687259166 211 218 164
0.1682950335655853 0.0519694013692667 1.0378284268215092 153 80 37
0.0327770213254584 -0.0843402689968030 1.0007689948553251 25 12 0
0.1771749704821011 0.0518854836606972 1.0401380387290755 213 145 96
0.0367010138536465 0.0540461234673942 1.0059977020776600 62 68 32
-0.0001914431582674 -0.0060419338144323 0.9902803030093646 149 129 79
0.0389578951279857 0.0542633817063688 1.0070861971987368 102 106 45
-0.0104557342628445 -0.0070041001433019 0.9837146771375028 63 49 4
0.0052386424304764 -0.1262905514153315 0.9992741973398400 30 16 3
0.0276475695311775 -0.0833725267350923 0.9982301326935067 34 25 0
0.0869896113622295 -0.0418168195072206 1.0257364398943380 45 39 7
0.1206419406508677 -0.0060287802705035 1.0221470014259693 74 67 21
0.1109547997033539 0.0370752684713532 1.0160607919472158 214 215 137
0.1305792860541989 0.0366993599963368 1.0210941709042431 58 52 0
0.1035940637177018 -0.0420802637652579 1.0268735558476807 231 236 178
-0.1519591746491796 0.0234639441897601 1.0426049369300106 210 80 108
-0.0065718655507094 -0.1264728014629392 0.9892198549805840 20 11 4
0.1383521135027404 0.0366975253300791 1.0227249360262110 33 18 0
0.1207337127624835 -0.0421838470856308 1.0318501109074090 148 123 59
0.1349691823039823 -0.0040241983945455 1.0308215607851705 162 139 87
0.2021134575602032 0.0428795310932402 1.0563578446915798 145 20 0
0.0218861003077465 -0.0831664342582140 0.9953723430110319 179 163 85
0.1326682002191430 0.0497009711405624 1.0206646706549114 58 50 14
-0.0305989515543886 -0.0077036977259284 0.9745737686616320 196 198 115
0.1300523075148965 -0.0717816832608999 1.0884005348297439 75 58 42
0.1664810705284276 0.0530183810292754 1.0382505330904568 160 100 50
-0.0278471776426596 -0.0464518754918840 0.9732948150334982 42 17 0
-0.0156756053116717 -0.0454152401152269 0.9811640118825742 42 27 0
0.1340525295147563 -0.0039962650051704 1.0302451863399054 62 43 0
-0.0027808996894566 0.0536098042026821 0.9930446717174102 45 27 5
0.1281744904340978 0.0368908424327907 1.0193329179857293 60 52 6
0.0280872065425268 -0.0438196569364654 0.9985161913428847 210 209 153
0.1641163591573199 0.0418870234433743 1.0422896552882763 170 102 67
-0.0124251604077419 -0.1248544166996652 0.9892154640340953 120 97 55
0.0862787887021722 0.0515034819035817 1.0114782267653897 96 93 40
0.1641004910056635 0.0429715489396717 1.0450344783397314 170 102 67
0.0250010147003914 -0.0436581469151146 0.9976170817279539 30 29 1
0.0827035003812098 0.0392221658272864 1.0119238456989481 69 67 16
0.0105754456008172 0.0560233518695612 1.0012988209420097 67 53 8
0.0090625642120202 -0.1188257996270345 0.9932226582308413 131 110 65
0.0240401170998196 -0.0818542395619575 0.9965592361784623 46 29 0
0.0297607018962716 -0.0437348931555501 0.9987577579462634 218 217 153
0.1175730911564507 0.0510812519004973 1.0180786480005797 212 208 135
0.1455682476467755 0.0392413991743875 1.0301061465079488 160 133 78
0.1128916157178366 -0.0763785322869933 1.0490767446794445 126 98 58
0.1979180455109196 0.0574571438890520 1.0558866369520228 197 85 48
0.0932310244124432 -0.0018525538583131 1.0230645902084874 91 90 36
-0.0210693807748562 -0.0452696761614630 0.9775799104764055 47 23 0
-0.0210900001882247 -0.0453535165291982 0.9772382814334061 47 23 0
0.1524887956564832 0.0157780227338526 1.0521088259086313 103 10 0
0.1014666467073689 -0.0027149941768008 1.0225502981872328 63 61 38
0.1266776521898402 -0.0047505797116610 1.0234103644672847 40 29 0
0.0144201664267852 -0.0810405788779822 0.9931208029252123 189 173 98
0.1674755570609943 0.0534013139225638 1.0372495091302796 223 189 128
0.1347237301679285 -0.0342311321241022 1.0641141046071214 42 25 7
0.1714896505054902 0.0530788163946869 1.0378072573230486 242 180 133
0.0914377631291164 0.0385682100673125 1.0126791034764528 222 224 159
0.0827194035274744 -0.0010792684212299 1.0216629269867241 215 216 148
0.1051929029994025 -0.0773369283791281 1.0372094485048939 41 21 0
0.2162959596307729 -0.0364733227561449 1.0759129637511864 166 141 74
0.1064682426531875 -0.0768312638278687 1.0395050638848964 141 119 61
0.1479916158791702 0.0401017307276501 1.0322544688447326 151 120 66
0.0111613877556231 -0.1236934501801968 1.0002292444755816 24 14 5
0.1891337876889662 0.0552669986711579 1.0475557871439181 166 136 74
0.1547517354062981 0.0425340179558994 1.0402469738708322 161 109 52
0.1345422850981795 -0.0027786739025333 1.0303784845671227 140 120 69
-0.0103227544902157 0.0535235126869768 0.9888564001793447 158 140 68
-0.0008133502783379 0.0410494591460343 0.9936010648565842 136 119 65
-0.0770892822198909 -0.0432183951069404 0.9674526540352800 121 132 115
-0.0181620701256540 -0.1172785155303763 0.9814628490601818 154 135 69
0.0084051673578957 0.0425988104620761 0.9995122548460299 154 136 74
0.1129234274074558 -0.0035679931788595 1.0214473479971171 59 57 18
0.1192977121707550 -0.0039162432880274 1.0220362242396459 104 100 53
0.1042554024439267 -0.0408593958661060 1.0264333858498678 60 58 33
0.1193435852117178 -0.0040658211987860 1.0215217760627984 104 100 53
0.0913769614596912 -0.0765406772588344 1.0299635736495232 46 37 0
0.0370476171612871 -0.1156074265313278 1.0123305337539494 24 10 0
0.1575382216258653 -0.0326338249548654 1.0737988979174160 170 122 73
0.1075915678234339 -0.0760708663158573 1.0371935238412242 31 15 0
0.1751105099793166 0.0149358078246538 1.0530222048516271 159 41 27
0.1638462330387842 0.0541277371325433 1.0370844647298831 126 21 0
0.1119452265788431 0.0380023783344745 1.0157019360371125 70 63 19
0.0257520232845262 -0.0425935081505005 0.9977983888264135 211 211 151
0.1915457932855043 0.0565703050449245 1.0502928081582932 86 59 4
0.2016627613139621 0.0439811712260025 1.0554909358566400 194 112 52
-0.0796981315048989 0.0153941205704562 0.9852422300132594 248 254 240
0.2012448880212472 0.0013306329392467 1.0605194803504026 182 42 19
0.0295724422036521 -0.1154295135551727 1.0071939142922799 27 14 0
-0.0135539887391505 -0.0433396021147595 0.9830536830876938 34 20 9
-0.0200557243185761 -0.0050463239075993 0.9785953722497338 149 140 81
0.0887923520677378 -0.0002357786716970 1.0224633032105583 62 60 19
0.1768430421957765 0.0542022796188275 1.0402680332176761 200 132 87
0.1137134151814936 -0.0027176517857334 1.0215942759080474 222 231 174
0.0816201106358526 0.0399268191312625 1.0112439086788629 231 234 163
0.1053854939345488 0.0385923000573101 1.0147624782768705 48 42 8
0.1991034388717387 0.0592139493697034 1.0575742124974321 145 26 2
-0.0858489032604541 0.0033794594290239 0.9865726203307827 234 251 235
0.0724642486880744 0.0539008311635220 1.0093656103098159 56 52 5
0.1090305035360964 0.0385530124784439 1.0157166763230616 210 215 151
0.0310202365564037 -0.1146661739751915 1.0058582691636091 127 110 66
0.0954407987235820 0.0528713294542148 1.0133400427663224 92 89 38
0.0958288104198587 -0.0749826045329673 1.0303852934637618 38 31 3
0.1388313190286672 0.0379768360853788 1.0225463841021796 170 161 86
0.1460091493374737 -0.0323964719621568 1.0685126419279050 160 108 61
-0.0209426471915049 -0.0040137932148071 0.9786025420829305 39 34 2
0.0855257418947593 -0.0389525802173298 1.0250794501072744 191 191 121
0.0171093309758166 -0.0004055280552710 1.0003684614271922 161 141 72
-0.0202884793331605 0.0541514937008458 0.9851886577378890 190 196 124
0.0084842928661964 -0.1209714050942645 0.9969989819405495 131 111 60
0.0377537301337347 0.0572722083754187 1.0070406489801873 98 97 43
0.0170318777895610 -0.0003721510950432 1.0004722890499291 161 141 72
0.1028334066016831 0.0390034431179381 1.0145352058724721 47 39 2
0.0377566932142999 0.0572614645957708 1.0070540001367583 98 97 43
0.0872268447331393 -0.0386955091939629 1.0255825747181915 199 198 118
0.1283079738491962 -0.0025468849017813 1.0237655909101813 68 58 9
0.1027958249905535 0.0390121559024004 1.0150881088170447 47 39 2
-0.0207912044921998 -0.1154679023754926 0.9775818637442304 156 131 74
0.0790473272368712 0.0013450266523296 1.0213609790252920 95 93 36
0.0792502847041277 0.0011310567593467 1.0205766867665083 95 93 36
0.1409355339347166 0.0383750759385829 1.0239633491115940 145 124 69
0.0829848018150195 0.0009289975314961 1.0215068038130573 222 226 152
-0.0560952124773094 0.0571614365802512 0.9831919155809229 70 80 45
0.1413158829029448 0.0388435282236157 1.0252307321909788 145 124 69
0.0181722345978369 0.0001782957265316 1.0006472573710126 35 13 0
0.0107016570969463 0.0437827372804401 1.0014828061884289 37 25 3
0.0847984351867283 -0.1113650805682243 1.0425143354731712 34 13 0
0.0346517956421526 0.0578356111708418 1.0066609007770626 224 226 161
-0.0035529323978300 -0.0020007664804066 0.9879988284221271 50 29 0
0.1037921989743316 -0.0733499040738072 1.0349325378093164 149 124 60
0.0628472343881325 0.0553407168565813 1.0084490531066759 209 212 155
0.0818874108389240 0.0013738854881307 1.0212279891649625 45 48 17
0.1595128984302686 -0.0660056078679112 1.0852569560246654 160 84 58
0.1071545649120752 0.0534013330592327 1.0160540692708699 203 208 144
-0.0285997353832523 -0.0036798111879614 0.9756385361590824 61 59 20
0.1125698110615117 0.0533004973803835 1.0172500512226317 51 46 6
-0.0226078698522551 -0.0033313043352485 0.9778087384387055 56 48 12
0.1126952439243779 0.0528279416835813 1.0163070848085003 51 46 6
-0.0198761035819335 -0.0035246847291874 0.9784359620271186 145 137 88
0.1181652730803019 0.0532703534556442 1.0190569893850485 205 201 137
0.1344074764140408 -0.0009995359081481 1.0279906100831673 60 37 5
0.1333119856574958 -0.0654032449564779 1.0809382123118645 52 29 0
0.0085962186618977 0.0000819867924215 0.9957217143119064 46 33 1
0.1321547353748953 0.0525467419190572 1.0213020641256929 45 45 7
0.0061356008882571 -0.1135175569938590 0.9919644304649041 35 13 0
0.1247597607304879 0.0382034460527789 1.0178462404363244 211 209 135
0.1671850876010259 0.0427892348671547 1.0414204489772352 140 18 15
0.0755266959661028 0.0549478005405001 1.0103481889681596 52 58 24
0.1391116452503869 0.0018128831667814 1.0358591593294844 149 126 76
0.1680875358118138 0.0556083519094913 1.0377689840691393 234 170 122
0.0930432361369299 -0.0378175718257683 1.0263763562382997 45 41 6
0.1054106031835983 0.0393886329330272 1.0151932591968840 41 37 2
0.0665461105042720 0.0556877971480264 1.0094804053730873 213 219 155
0.1900894672855522 -0.0335026506180886 1.0694755470061752 193 25 25
0.1144853072495763 -0.0006459711406996 1.0208817398789820 60 60 26
0.0146387075138082 -0.0759351686442326 0.9921755080522644 204 193 129
0.1606490189475936 -0.0653363794061563 1.0850694308463043 127 36 18
0.1889585802580190 0.0430183824209708 1.0476152809229431 153 139 78
0.0264969548736067 0.0590279027311728 1.0060387689614700 208 215 171
0.0262944442719504 0.0592406439254899 1.0067017686653312 208 215 171
0.0957388810827390 -0.0726194547902325 1.0299585466510821 33 32 12
0.0407037842469331 0.0578892077432994 1.0072224341275744 96 94 46
0.0407299918880703 0.0579057223527614 1.0070899937007358 96 94 46
0.0740576868484437 0.0550598679396281 1.0093143158013977 41 45 12
0.1277795654077884 0.0533770085834510 1.0206879078855733 46 41 9
0.1278110403162818 0.0534440479609532 1.0206134372610927 46 41 9
0.0937242677862826 0.0018987353092352 1.0216083764260067 67 65 26
0.1758391358614722 0.0556719742734505 1.0391815922035272 197 146 91
0.0938258285796443 0.0017757599325405 1.0214360888062273 67 65 26
0.1346112466604912 0.0005787668834249 1.0288132309360201 145 127 79
0.0107053698661510 0.0592174827160078 1.0018302320900587 63 50 5
-0.0990598056617504 0.0277243157280962 1.0059868688188844 147 101 77
0.0235586769738625 0.0596990057486686 1.0061701007177815 47 48 17
0.2057768975645583 0.0466488434126420 1.0590714194434740 207 113 61
0.0339118931232739 0.0587901634147105 1.0063178389140266 68 69 29
0.0110527628737782 0.0013406068706966 0.9969168312491024 159 139 80
0.0017548665584976 0.0438324928257234 0.9962145626569953 29 14 0
-0.0053233931814349 -0.0400905856768671 0.9874892682595913 33 17 0
0.1742371754166321 0.0066719706612799 1.0577348717572992 155 108 64
0.1372664595715299 0.0532190035139701 1.0218356881284687 211 211 137
-0.0053656791458927 -0.0400169325549618 0.9877669363684055 33 17 0
0.0200821133518403 0.0454532520364702 1.0050652985362631 188 181 101
0.0883324620313965 0.0028104325432291 1.0214168134015353 64 61 20
0.0232915672411439 -0.1117326888157739 0.9993646069117923 137 115 68
0.1642450600446325 0.0560707394945407 1.0370530224530359 114 18 0
0.0067065316366305 -0.1115406533735215 0.9900485648368674 39 19 0
0.1315641125399072 0.0540771064462785 1.0217755433416709 210 211 135
0.1116274062691928 0.0398576250151001 1.0161505158062882 41 35 0
0.0280899657943328 -0.0735940329925885 0.9988019252327937 186 183 130
0.0082298627438989 -0.1112211879666212 0.9906945592238725 36 20 4
0.0051490866101263 0.0012122584091405 0.9930248334058280 21 7 0
0.0787690551705681 0.0558870860310621 1.0103110884497049 223 231 156
0.0202757034592111 -0.1104707141964399 0.9975659218333394 132 109 68
0.0787312860715798 0.0559117136500676 1.0104277336662013 223 231 156
0.1775118143029412 0.0428874780261901 1.0420437866088799 166 62 33
0.1184321436695741 0.0544035376453651 1.0187006365375386 53 48 10
-0.0147837055754568 -0.1159908539244174 0.9837403566236789 161 133 70
0.1849712162439987 0.0431775198903799 1.0449472844728713 171 146 79
0.1317046015287451 -0.0300970863268774 1.0620466059614608 45 19 0
0.1797002481672562 0.0572295802432025 1.0417877440397663 131 42 8
0.0083316643437018 0.0024285422397433 0.9962685919407539 48 33 2
0.0301166294806700 -0.1096013549609179 1.0049337878173383 30 13 0
0.1689662159652418 0.0564149527260008 1.0368023655236784 164 55 35
0.1666202807416005 -0.0627012925956228 1.0893455817834672 125 54 22
0.2047233898898865 0.0061826651064538 1.0609015482089115 176 56 4
-0.0798467436182712 -0.0387166001260661 0.9705959328533448 247 254 246
0.0134641710710145 -0.0390400831503822 0.9951051770485094 48 36 10
0.1113298266546096 0.0143121529976123 1.0192152747354908 58 58 32
0.0216538860292346 -0.1149099167765477 1.0019637090997675 130 112 66
0.0043753312993192 -0.0735865336340492 0.9891804298699625 36 30 0
0.0269895242946661 0.0602629814890552 1.0065977193414104 55 52 19
0.0065293416057830 0.0022900591991221 0.9946510016534156 28 16 0
0.0954724997904903 -0.0706367248659711 1.0295278645370369 43 43 5
0.1844228830456369 0.0584122556735216 1.0455028055935325 68 32 0
0.0149987467421758 -0.0388085865439386 0.9958480768257273 51 44 26
0.0971932966592072 0.0408880145207454 1.0133865723686386 67 57 21
0.0151482109425392 -0.1094494119809341 0.9973608787971654 154 135 76
0.1437540146504125 -0.0294948211534374 1.0671051794452975 118 22 8
0.0036037251134168 -0.0737487649236813 0.9875339821343020 204 198 114
0.1276988611276465 0.0397223017134013 1.0194207873220429 62 57 17
0.1069534927820671 0.0551103811763316 1.0157683040682053 207 210 153
0.0999545236618277 0.0026980438159993 1.0203340585667031 61 69 32
0.1276978467324009 0.0398324183303614 1.0192601143859257 62 57 17
0.0198699514138788 -0.1141847765358765 1.0009242225888872 134 110 64
0.1326475113756805 -0.0292611587960858 1.0630594051135973 121 97 51
-0.0631772099541498 0.0635097268307409 0.9905816882869262 242 251 204
0.2001763075925589 0.0063263765406649 1.0589599146679054 161 56 0
0.0613350740018048 -0.1066058728215539 1.0332728542167220 145 121 59
0.0719872778140833 0.0569777714964246 1.0096660871097742 98 104 44
0.0719471593434171 0.0569237986613345 1.0096130832543591 98 104 44
-0.0585762783984285 -0.0745733263815862 0.9611543210756929 146 161 142
0.0396624847496417 0.0603515024439162 1.0079732375672026 224 229 171
0.2037927910536334 0.0465188678454022 1.0575018122164301 197 86 56
0.1494170803681970 0.0550745264740166 1.0255743300873401 44 24 0
0.1965275792729172 0.0061215409203682 1.0565934498820360 182 24 21
0.1642104584933966 -0.0271012363127301 1.0778999621663941 155 96 62
0.0807259228183618 0.0571162581809964 1.0107686755702452 213 214 156
0.0926803111269326 0.0566756922669891 1.0131064352032166 55 51 14
0.0871212412320002 0.0046148405448591 1.0207373645492741 240 240 178
0.1520340099026187 0.0102590625929277 1.0563388098281328 122 57 15
0.0175310019757403 0.0189054251322887 1.0029275293563260 156 144 72
-0.0287038233594426 -0.1125767406780551 0.9534950169316694 52 18 8
0.1479258534707845 0.0554384035268534 1.0256057667800549 73 55 9
0.1201797493879506 0.0564313610559640 1.0193370229122907 105 100 45
0.0910596142686155 -0.1053831011212847 1.0446618877153340 33 20 4
0.1752038381206998 0.0083761835360028 1.0562085132537564 112 32 7
-0.0592384697463708 0.0638801813975178 0.9896032161933831 229 241 193
0.0068780630820259 -0.1092959301693267 0.9888778191791621 39 24 0
0.0180128900829871 -0.0717716655987731 0.9934584306921671 176 168 105
0.1091616159646536 0.0566095114537439 1.0165255259934936 119 118 53
0.1085985004865292 0.0407536598583497 1.0156073411796833 210 213 146
0.1091392461363253 0.0566960276739166 1.0167644183095725 119 118 53
0.0016016402258718 0.0031032485106901 0.9914572496760802 48 33 0
0.1086599806532057 0.0407710076310621 1.0155419212927690 210 213 146
0.1075399052837464 0.0035105507083010 1.0214217718735836 102 106 45
0.1625181054947916 -0.0282443851584405 1.0716372492097626 145 110 56
0.1504889583340260 0.0223717811724466 1.0457073708168791 160 117 62
0.0298358512214343 -0.0706657407324044 0.9984552424619861 35 26 0
-0.0001152141531134 -0.1114812456124097 0.9885880111712968 156 135 80
0.0158514223490047 0.0624901958115122 1.0041141147220147 190 178 102
0.0297256919084918 -0.0705935323893128 0.9987937355806645 35 26 0
0.1178324655630092 0.0407332907599378 1.0172941934135227 216 218 145
0.0073580483247425 0.0041772264561487 0.9949520723241987 45 28 2
0.0509724094156025 0.0599720273436205 1.0072906302031224 70 65 36
-0.0019283105759817 -0.1116453666126363 0.9851685118581262 152 126 67
0.1439591512875445 -0.0610495899650327 1.0766232091265340 106 17 9
0.0927459623579367 0.0053332573497956 1.0215614511447704 237 247 184
0.0510459351834305 0.0598702455146217 1.0070134334834886 70 65 36
-0.0126385924716408 -0.0712495121944518 0.9824552772461219 151 131 81
0.1064126497034333 0.0574739026118889 1.0166414690343146 209 207 146
0.1753445406937320 0.0588324193655124 1.0391071787721964 135 42 8
0.0481591519946835 0.0605278091404629 1.0073891890641309 224 231 177
-0.1213037653021170 0.0540096137627674 1.1123743034409714 166 171 130
0.1398026683233841 -0.0275757267646656 1.0657816637423096 40 19 2
0.0279307666282588 -0.0701138530359212 0.9981153410183665 43 31 0
0.0810707183118050 0.0582649554464802 1.0109082067534949 109 115 53
0.1169561778211819 -0.0355908890247373 1.0274336836529605 71 58 23
0.0524426181687873 0.0601149011756437 1.0071484551826888 54 56 34
0.0542873640046902 0.0600350162219130 1.0071242292027873 63 60 15
0.1319313913110476 -0.0281849668590912 1.0610389952821548 43 19 0
0.0624482589493216 0.0592667013800760 1.0078883293199827 192 201 146
0.1319534268812567 -0.0281780110620680 1.0610529905506538 43 19 0
0.0390521775165883 0.0071698861636734 1.0100445913523912 61 54 0
0.0389816518324019 0.0069964005238857 1.0096859791474355 61 54 0
0.1964723586901521 -0.0292098466853087 1.0730597751596904 198 53 32
0.0506927480818643 0.0073227687188108 1.0146491111619367 214 210 137
0.1269037176167797 0.0574308859872612 1.0212860363978107 42 43 3
0.1339849798440793 0.0407427210205370 1.0207666152848967 41 35 0
0.0362174929623832 0.0620834745583704 1.0068928382071756 219 228 175
0.1764161408939207 0.0443904463597590 1.0414764173835345 243 177 125
0.1985005463349409 0.0212767847916122 1.0539802638006310 215 131 58
0.1054195685481423 0.0577500463545093 1.0159437605671811 52 48 13
-0.0535486649383839 -0.0723299097634551 0.9607037945195124 183 196 166
0.1054060430665600 0.0577171700364540 1.0157514823106126 52 48 13
0.0314417382771904 -0.0695052782980977 0.9990808882045950 42 27 4
0.1798741187310670 0.0443399591452810 1.0422871218951009 213 152 105
0.1809543303698135 0.0606331310976867 1.0436529180549656 194 125 70
0.0035265836922633 0.0047472779862720 0.9927002582863715 37 20 0
0.1893976090661982 0.0628868293300122 1.0506279672478618 95 64 0
0.0346957523184995 -0.0689063970303000 1.0003978095210830 35 19 0
0.0221756576204539 -0.1068596141048062 0.9991786707108395 38 23 4
0.0066671404439887 0.0460016376100998 0.9987918419959773 38 21 0
0.1548131345156689 0.0241935799783956 1.0498266745801974 156 110 60
0.1362680622255760 0.0054996526466139 1.0311450354952698 151 131 78
0.0350565958760401 0.0625824345562950 1.0069138206652668 44 54 17
0.1546833573694588 0.0115073546185006 1.0549148221316185 112 26 3
0.0401577446422902 0.0621069452281466 1.0069989299653848 47 50 23
0.0759272558209961 0.0595674008255973 1.0110017329287941 81 82 40
0.1475642111097462 0.0428476962146549 1.0291295214872240 47 26 0
-0.0079942719949577 -0.1060648027102679 0.9836625847693869 40 24 1
0.0793885610442086 0.0591350336529549 1.0107899549478512 201 208 140
0.0224329635610663 -0.0362510991990866 0.9978952048555365 203 210 156
0.0222631439002321 -0.0689287638426134 0.9953893474228559 53 42 10
0.0887770372251464 0.0587700379437356 1.0121536186965943 51 52 8
0.0887327508446039 0.0588381586325645 1.0124486936377655 51 52 8
0.0716137020916905 0.0598092178514975 1.0097154951817733 126 120 58
0.0516148366662339 0.0080705845323286 1.0140940795057867 108 103 37
0.0319404674197001 -0.0684755365783041 0.9996349393909968 144 136 97
0.0877569910757729 0.0588670340900898 1.0115960391491103 214 218 134
0.1168776881620862 0.0418598314274585 1.0168577809784414 52 54 30
0.1129511822676327 0.0584070126325238 1.0176055749232280 208 209 131
0.0141136936553242 -0.0684862480025803 0.9922701078496879 42 32 0
0.0116197972846515 -0.0356605893125195 0.9948416493776888 191 187 124
0.0658651131135070 0.0604285501779549 1.0086134240248543 211 218 151
0.1355607191491083 0.0579958229724853 1.0223944349442315 52 53 13
-0.0135036054908930 -0.1056802093385500 0.9781247882095528 28 15 0
0.0005254614071184 -0.1064688432613731 0.9840338991820334 160 140 81
0.1355513039282887 0.0580212413861438 1.0227925930093669 52 53 13
0.1048484359019000 -0.0985416511992680 1.0617599917682390 109 86 45
0.0477827078209636 0.0086137920297808 1.0129389681175234 72 65 23
0.0875984667161973 -0.0652052835795675 1.0274444053713065 52 44 0
0.1112391348292336 -0.0983579852140415 1.0733354986927524 130 102 52
0.1203684771577736 -0.0340289245506269 1.0301794761158571 43 22 0
0.1151312426866870 0.0586576273368173 1.0180808146702256 203 203 143
0.2183290221647055 -0.0298524039830172 1.0717597270728949 98 72 45
0.0025082704826988 -0.1042797028557300 0.9882385440937622 38 20 0
0.1701209262034822 0.0118992729282461 1.0566065989752207 103 13 5
0.1278938689822674 0.0577320666968862 1.0191712725425055 211 207 143
-0.0199286872362881 0.0034639104931627 0.9790462284948318 175 168 88
0.1140188728486525 0.0051082947670384 1.0200560053060528 61 62 18
0.0197971256581574 -0.0677111854474989 0.9945355372026372 39 29 0
0.0268086802165294 -0.0675421354630779 0.9970600749010013 185 178 98
0.0955097309570416 -0.1000348589731927 1.0438019569716104 134 108 59
0.0906310088421296 -0.0646032767499118 1.0277496285087921 57 53 5
0.0758372114532305 0.0603897193780894 1.0101146289933618 201 211 151
0.0236092108714268 -0.1039056398692462 0.9940144934127885 148 127 72
0.0505817802183704 0.0090742234277050 1.0139516854814263 214 211 142
0.0223215050554617 -0.1031214512753098 0.9994086856935662 148 127 72
0.1115350823544668 0.0594229730564750 1.0176210765053433 100 98 37
0.0912204112630918 -0.0639579639328862 1.0282337257730376 220 221 163
0.0620642870706932 0.0090355842423109 1.0161623978851111 218 213 132
0.1781835757643040 0.0456556923209997 1.0416264162406506 224 165 109
0.1323217478929924 0.0059350696639451 1.0265789561069569 156 134 77
0.1157226229973819 -0.0621916992150173 1.0418028508628014 137 109 61
-0.0107722133784237 -0.1027711560909748 0.9827706658930472 151 134 62
0.1230476500557249 -0.0332740751157974 1.0309689341162247 66 30 4
0.0654923588951867 0.0456550549527844 1.0101037518291047 224 227 156
0.0942124052737584 -0.0637259405632092 1.0278716451685022 220 224 150
-0.0065269147019461 -0.0355619095121628 0.9869810994154360 41 30 2
0.0921367996334396 0.0438132664455559 1.0124317741862050 54 53 22
-0.0241232330054253 0.0041436298274336 0.9782943735316791 57 50 4
0.0781937566247651 0.0606390070125626 1.0100283356838911 46 45 0
-0.0906226587847623 -0.1034322893693012 0.9486411380544748 142 91 64
-0.0066037790117712 -0.0355659039172875 0.9869608921265993 41 30 2
0.1225448999609449 0.0425333983314758 1.0180276025157640 46 39 0
-0.1132473766251443 -0.1132649496686809 0.8720999153454643 23 12 10
0.0190053134202711 -0.0663809672022449 0.9941531810502645 196 186 125
0.1061951433205519 -0.0331840464068700 1.0262374878516640 48 52 17
0.1683360232864051 0.0608266387490792 1.0350344454257929 156 61 33
-0.0002979398180303 -0.1037813152371477 0.9855131762590994 158 136 78
0.1684146122074255 0.0610629475927980 1.0351817561015353 156 61 33
0.0395034349329906 0.0095850624240707 1.0103893345290285 38 28 0
0.0309001660585765 -0.0661323726628574 0.9987621400084953 26 16 0
0.1448464376627386 0.0591164284398872 1.0240529821324831 54 40 3
0.1570510949639042 -0.0248805481753847 1.0714475605013900 164 111 67
0.0481083770095248 0.0101629331626602 1.0144267338897468 212 206 128
0.1666226858161850 0.0616018991515254 1.0360059376285615 161 55 33
0.0137256851533557 -0.0659863769593753 0.9922622015054241 43 38 0
0.0137195993199387 -0.0660337737108121 0.9923424715510646 43 38 0
0.1428349598959740 0.0199486821687893 1.0295522278936742 164 135 69
-0.0084077025784635 0.0054384183293166 0.9852864484402950 169 153 76
0.0878483032799605 -0.0628000331433843 1.0270436945936949 221 222 152
-0.0231687298647563 0.0441038725052878 0.9826155330528746 12 11 0
0.0758976279399445 0.0616313146010132 1.0101346909783397 53 48 19
0.0925471355312194 0.0078529847261656 1.0198601525855422 60 62 22
0.0467343002074402 0.0638137142796863 1.0071158598778183 43 44 26
-0.0087674406697069 0.0455920646467140 0.9897394522934670 57 41 5
0.0466269254521434 0.0639785834137769 1.0073750385240265 43 44 26
-0.0878303478916700 0.0141462510176589 0.9903999484403854 247 255 244
0.1595701471988909 -0.0247338720697019 1.0725112337260032 116 33 15
0.1692331786657416 0.0613716348237811 1.0354069089671847 236 163 130
0.0968257962661523 0.0435312351923162 1.0126400699572842 49 45 7
-0.0765002885494641 0.0108613355878431 0.9831936967803031 250 255 241
0.0967226884811523 0.0437987858772266 1.0132788822582959 49 45 7
0.0966995228185879 0.0437729416340973 1.0132118899445011 49 45 7
0.1481428395822513 -0.0546240577548227 1.0774235574741740 89 17 0
0.1995997041888205 0.0698361149608131 1.0623260920605000 149 33 10
0.1095226567080351 -0.0620263814850195 1.0311135769599051 147 121 64
0.0404365044229380 0.0102540773194343 1.0108619272593331 210 192 120
0.1683321658407020 -0.0242189174059721 1.0743927446221981 104 16 6
0.0197039749900209 -0.0645982010572591 0.9945799600324993 53 41 19
-0.0136815265626032 0.0059074189340414 0.9831793532897354 58 47 17
0.0267382548674641 0.0663208951005142 1.0062702983275935 226 230 154
-0.0209998115292010 -0.1004704663401689 0.9783936296409314 38 21 0
0.1662652350065237 0.0467729487181761 1.0397618210444008 139 31 19
0.0913215903478789 0.0620579794968065 1.0134246363559112 207 208 150
0.1077672859263618 0.0615613158911567 1.0168500138767627 83 80 13
0.0070336691241758 0.0081682607024191 0.9952581428314229 53 35 0
-0.0159212909041154 -0.0999344905791359 0.9794995736841946 159 139 76
0.1346926601435853 0.0609019789999880 1.0230932913672435 208 211 156
0.0262658614002730 0.0492963618472086 1.0068816522155795 39 40 8
0.0969170652437205 -0.0952534191013688 1.0409659031311813 121 104 52
-0.0011930291876135 -0.0642316468382493 0.9878356086085700 55 41 12
0.1642836859478781 -0.0236471685677244 1.0739420790863343 101 24 8
0.1082699582278162 0.0436179189223926 1.0154605670348855 214 215 155
-0.0174923429147141 -0.0351584248957765 0.9809291041889691 26 10 0
0.0012817436462813 0.0077277790386250 0.9918108588997622 28 16 0
0.0019758120396667 -0.0990389597771713 0.9861982019417397 47 30 10
0.1465451326563222 0.0602536483466224 1.0246475716999706 47 42 10
0.0829198448209629 0.0098724742106058 1.0195947235066423 70 68 20
0.0125314134583358 -0.0638914855717201 0.9918030066536083 68 52 3
0.0125760955989472 -0.0639159241851039 0.9918513266020162 68 52 3
0.1992158986374698 -0.0542445058664796 1.0808565440960918 53 16 10
0.1415758017131594 0.0087761312608823 1.0332028424389279 49 28 0
0.0484760217045874 0.0648352943401684 1.0072513007488797 46 54 17
0.1065530824971755 -0.0603705288072664 1.0309245740054545 168 154 105
0.0686857767217960 0.0106558688681895 1.0176043327171287 225 216 157
-0.0208288529889173 -0.0985941457458481 0.9777687093853231 144 124 65
0.0519809506299405 0.0643283696217503 1.0073347487490809 36 44 20
0.1014676473281114 0.0080128487444728 1.0192738675688622 80 80 42
0.0758100771578292 0.0628178836822685 1.0099597245856307 208 208 138
0.0337836263881436 -0.0628556018531540 0.9999899084395443 56 37 0
0.1261238653167663 0.0617149989519365 1.0218902390247826 47 49 12
0.0191092540936584 0.0100007224616386 1.0018994700085484 169 153 75
0.0135696908990565 -0.0982086610052225 0.9922028962696466 160 141 82
0.0534341285735630 0.0645848192612740 1.0075957489729803 36 42 16
0.0576620651551094 0.0110774841483479 1.0156634824752775 77 74 23
-0.0016388969782774 -0.0336015010173167 0.9893775477866608 172 161 97
0.1154825107995605 0.0437792697042727 1.0171597422289214 211 215 156
0.0712728924055805 0.0631976805531142 1.0092907021828423 56 52 5
0.1566510813990628 0.0266052246229237 1.0491690064905734 148 102 52
0.1204518329037555 -0.0323491787442691 1.0271967858818210 38 23 0
0.0721601619030243 0.0109506523554261 1.0190323410656796 224 224 162
0.1151718712299123 0.0626272911053364 1.0204453967660971 83 71 21
0.1366792666608161 -0.0236748048856015 1.0640555670771088 52 22 0
-0.0003034150018627 -0.0630451780070250 0.9881793475334834 198 190 127
-0.0027784006431045 -0.0334142296744155 0.9889555769945980 32 19 2
0.1420186150225995 0.0610469826007514 1.0239621543526225 95 94 40
0.1093586384308552 -0.0920457505048546 1.0569238170354485 129 101 53
0.1920110459206137 0.0483837978076292 1.0490437837816344 42 25 0
0.1859380098182886 0.0671544606038034 1.0503953260446821 73 45 0
0.1851876414047021 0.0240855648584343 1.0491517964502648 208 200 125
0.0947870572494287 -0.0603342392386354 1.0276229578567107 56 51 11
0.0036264587430746 0.0089382792009581 0.9942537769627751 162 143 77
0.1091250303115832 -0.0595033201698767 1.0347067537352850 154 133 76
-0.0589470036687084 0.0705528582795309 0.9925257824858209 239 249 196
0.1045090920203596 0.0624287866766205 1.0160436391945351 49 45 0
0.0203409843026729 0.0108404049153986 1.0031914848605643 153 137 75
-0.0786809751716051 0.0279595905715328 0.9887581587692217 220 101 93
0.0537347635932856 0.0116759046255219 1.0143867725357469 214 214 152
0.0070701786754035 -0.0323233851122365 0.9935023264850800 175 162 83
0.1510320726843800 0.0614189291420002 1.0269642961588181 67 60 16
0.1401541490853728 0.0097350495958972 1.0327164349511768 151 125 64
0.0646123288054728 0.0640902306833388 1.0085916324867950 96 99 44
0.1094891442703823 -0.0907718436304204 1.0558594149936289 45 24 0
0.1434409071017276 0.0101770845811276 1.0349236488066489 45 18 0
0.0723574665470351 0.0634556804756089 1.0091739891849214 218 219 151
0.0745243988644402 0.0638693360357268 1.0109562950171644 83 81 33
0.0440999121655116 0.0122838376917461 1.0129174543488741 195 198 131
0.0207085429652172 -0.0319568281859395 0.9984666806968370 210 212 139
0.0745991695286812 0.0635347455033497 1.0102119298451797 83 81 33
0.1384191382184591 0.0615571738056382 1.0235418005595027 211 218 150
-0.0183525464279235 -0.0984293723718758 0.9782481335119247 153 131 81
-0.0916923148424416 0.0335534694835498 0.9994968629897686 126 143 133
0.1677060875368612 0.0631505241064553 1.0345821461267033 235 151 117
0.0398882570131242 0.0123632259036336 1.0114283698166091 198 196 135
-0.0104614531498650 -0.0962460706834255 0.9838815781747475 151 136 81
-0.0648980202226874 -0.0630158023197109 0.9627540463221611 238 255 240
-0.0141908397163619 0.0457900161270516 0.9858281965845254 166 150 72
-0.0595445486810210 0.0705390602502890 0.9911394262600011 86 96 59
0.1538290736526158 0.0162896469104952 1.0541234880804224 175 100 69
0.0723511185409563 0.0113568073423834 1.0165826789990757 50 56 30
0.0919972477899634 -0.0920339980827027 1.0341034513524521 38 23 0
0.1485620918048508 0.0615622309758822 1.0251751902457482 210 212 137
0.0996479924009271 -0.0585306784296836 1.0285296320494097 79 77 29
0.1201584820092441 0.0083022465966711 1.0207102697655466 216 221 157
0.0426130051226300 0.0662173131130635 1.0065213714385115 232 237 171
0.1054233574857434 0.0629890452971005 1.0161628164858878 210 210 136
0.1236049934843221 -0.0304738595937881 1.0302293486406240 172 142 80
0.0388756334098818 0.0125990549636541 1.0106677733179577 23 22 0
0.0390007725075280 0.0125103497790538 1.0103293286392647 23 22 0
0.1103865981315673 0.0632041821082001 1.0176357161733129 93 92 27
0.1140096161363712 0.0086714903128797 1.0193021500837400 53 56 13
-0.0599468778530510 -0.0629693683189101 0.9617220798029166 93 110 91
0.1140545757183607 0.0087502592342606 1.0194404558409988 53 56 13
-0.1615172892085993 -0.0391031672342078 1.0418951756663912 145 14 4
0.1158377272623539 0.0090148495670499 1.0193382726084781 65 63 15
0.0240487085140364 -0.0968786344222289 0.9965447990036772 38 16 3
0.1290372193144555 0.0087346925741541 1.0226656849919820 71 54 2
0.1569044885935042 0.0626823867028711 1.0289213705906155 196 138 92
0.1685401975722137 0.0638726179457319 1.0350538895424628 160 48 26
0.0952967949405632 -0.0911682605673632 1.0365936378721050 144 122 62
0.0142367467852942 -0.0310196823380937 0.9967884957546371 194 192 117
0.1227772527914386 -0.0300483053841770 1.0289687652305659 45 18 0
0.1651897963247826 0.0637758319678003 1.0333584659613826 152 57 27
0.1423592139099146 0.0444127546549180 1.0239410801335176 48 32 6
0.0916947423147376 -0.0570914514892706 1.0275039347482948 228 233 169
0.2012647562742678 0.0511493124520965 1.0567147762086508 200 103 50
0.1030585923824473 -0.0570854819687065 1.0286496306679034 209 214 150
0.1128719173824237 -0.0900812710921026 1.0608111548414445 143 118 64
0.1493230669723627 0.0626396384575394 1.0256051859401316 59 55 18
0.0081573764175620 -0.0943237558188521 0.9904865801187717 31 20 0
0.1381638562667415 0.0633881566458731 1.0239567737473607 190 195 131
-0.0177259334215019 0.0225029090803797 0.9821835552557900 161 149 77
0.0935601893306445 -0.0566179278285555 1.0283328113575398 227 227 173
0.1700553323805967 0.0645826544914502 1.0357537677801529 150 44 20
0.1547112712806769 0.0172904137160126 1.0525043095969613 113 31 9
0.1986641604120458 0.0512423587024763 1.0552563469849503 197 112 48
0.1302141175168521 0.0640318566976331 1.0227523394902731 107 106 50
0.1953220332735246 -0.0504300767908595 1.0820537374227310 224 148 60
-0.0216166547278122 -0.0944997234699369 0.9773473417630624 30 15 0
0.0091793150148630 -0.0302234333409125 0.9944614689593300 35 24 2
0.0923902585215186 0.0649730750650541 1.0136699640609736 48 46 7
0.1018998120009812 -0.0568999146953268 1.0288828809895088 58 53 11
0.0447677620298076 0.0139687949772218 1.0125168055840310 21 19 0
0.1020875059230764 0.0639628935743288 1.0144682894089119 52 47 17
0.1096484117564295 0.0103578680263960 1.0194026592489009 223 231 172
0.1406567910174522 -0.0211136169234564 1.0633101615732032 41 16 0
0.1039788409400279 -0.0563572928777714 1.0288478229137399 51 42 9
0.1219814257650544 0.0455762783504405 1.0185050100537301 44 40 3
0.1018070444180103 0.0647252568537852 1.0160636162041654 52 47 17
-0.0111969356799019 -0.0956788021599964 0.9862334139966259 158 143 84
0.0708884682905718 0.0659484999568207 1.0094309755538260 47 40 11
0.0708365557801844 0.0659900283790727 1.0096387328492107 47 40 11
0.0407432030837933 0.0145823344219921 1.0109898220496416 203 196 115
0.1147723954799369 0.0104938051901983 1.0194668839024181 211 219 168
0.1580159333911078 0.0640043092535753 1.0296084292846304 139 59 24
-0.0197463619096485 -0.0315609186393051 0.9793175294778399 154 133 80
0.1122704426034092 0.0104334141746750 1.0182053399266973 47 42 10
0.1960920899330779 -0.0239428703471627 1.0667805781079562 186 34 20
0.0024349889347361 -0.0590249413184690 0.9888807304834322 211 203 128
0.0846074769453245 -0.0271464029670961 1.0235100372244557 167 152 83
0.0374935843999470 0.0151641756118362 1.0107387527202090 78 75 24
-0.0140383771185230 -0.0930703955549223 0.9818722102799402 45 23 10
0.0163237941202025 -0.0588250315499847 0.9937834154442055 33 28 0
0.1285584226710745 0.0649894271027018 1.0227227438083111 205 208 137
0.0652928133340912 0.0144721091222005 1.0164519743467633 228 231 164
0.0199730558033299 -0.0924928847615068 0.9956701825871960 39 23 7
0.1237734489687825 -0.0282521000116335 1.0299831069427530 150 124 63
0.0155191065181452 -0.0944327240489301 0.9934393483267343 167 151 73
0.1105187063780137 0.0109594230178724 1.0187056809425286 66 63 22
0.1039393013481136 0.0654185828788278 1.0168270822920362 38 37 7
-0.0045262655097549 -0.0928870413144674 0.9859353730151154 160 146 83
0.1218499160475008 0.0103804777760763 1.0200094046977395 214 211 144
0.1218785282676948 0.0104060760208565 1.0201778761615130 214 211 144
0.1508258979789332 -0.0197073322880180 1.0693966648446485 155 101 54
0.1749771431330941 0.0680636597107468 1.0416276056012901 129 63 15
-0.0149175213702540 -0.0931323976169516 0.9769031934260900 32 19 3
0.0328865359139035 0.0518753181330395 1.0065818654999794 59 60 29
0.0741078170377399 0.0667655029999205 1.0104209129948634 52 46 10
0.1998322315297391 0.0535346577074400 1.0569342964376018 195 108 41
0.1096846119082798 -0.0862934067597630 1.0540693050003687 44 20 0
0.0857516343376979 0.0134113881457210 1.0185055945406327 47 50 21
0.0772429470203883 0.0665307518476780 1.0105569828489542 203 203 143
0.1086274926956791 -0.0873952643068472 1.0535777182189792 141 116 59
0.1144340869430638 0.0657712360790425 1.0195668125566524 30 36 2
0.1139459048052687 0.0110046694053136 1.0189213511084139 49 48 18
0.1237086391697151 0.0104864320663681 1.0202209475624306 210 205 139
0.1209144699564717 0.0658282198137913 1.0208502183186032 98 93 29
0.1237126212877740 0.0106019628824004 1.0204431717209359 210 205 139
0.1211709837522752 0.0662417919584460 1.0218507157657222 98 93 29
-0.0060342174084889 0.0496063855581033 0.9908230966562815 150 130 59
0.1177142370177221 0.0109692174686861 1.0192779975024970 57 50 6
0.1466263110990833 0.0651218368022209 1.0258949477942885 41 47 9
0.0604119921952543 0.0498183910765013 1.0087465221207730 228 232 171
0.0368563314504152 -0.0907463651127317 1.0038479137646843 39 27 13
0.1155303622696609 0.0111909488783836 1.0188167102798382 51 45 19
0.1673825624690089 -0.0462239215207885 1.0831019225466707 124 39 18
0.0760591560669388 0.0673960544153315 1.0107757991930779 46 48 9
-0.0810739382668992 0.0183157995498244 0.9872312890634801 250 255 242
0.0760429726677336 0.0673987523535858 1.0107791662688352 46 48 9
0.1131754599312700 -0.0540842098983743 1.0334388312766050 58 35 0
-0.0223898711050493 0.0483833129567865 0.9832253153525068 207 211 137
0.1208916916970057 0.0112385040089306 1.0199792907255052 80 76 29
-0.0662391491978831 -0.0585665111670994 0.9620141010047014 110 120 111
0.0051466694828786 0.0517137201334702 0.9985260656022501 58 40 2
0.1069345654286063 -0.0546460110138040 1.0286461446843418 195 190 135
0.1439464466630966 0.0144343770580638 1.0355519387309491 59 38 7
0.1987693481489536 -0.0229606300045181 1.0676756283558799 195 38 31
0.0574951465913806 0.0159561842095333 1.0157816832244650 79 75 27
-0.0624960365858359 -0.0586485786213838 0.9620909118455536 88 96 85
-0.0832509173055338 -0.0269192603065348 0.9756988602503324 109 122 112
-0.0213713384910486 -0.0918260019497582 0.9753411811892645 44 28 5
-0.0180301562674096 0.0689155073640820 0.9871664347412740 213 210 115
0.0552140625815558 0.0158993132075313 1.0143359077637577 50 51 20
0.1483789993016944 -0.0188995701278422 1.0676214420133368 164 101 60
0.0718594125521757 0.0158353251729518 1.0180557659113594 215 216 158
0.0184177386180141 -0.0905670984233904 0.9946065912516665 161 146 89
0.1164415232629300 -0.0531658943653151 1.0353647084462885 131 112 70
0.1796319468470725 0.0713656836586602 1.0453235662011857 192 126 78
0.0463408230042489 0.0167269613532664 1.0130716449014172 61 59 21
0.0193730988414395 -0.0910277877402452 0.9955537948789018 39 23 7
0.1149779845792312 0.0118678543173722 1.0177411281609465 219 225 155
0.1061717532893363 -0.0266412572980794 1.0273706979063029 239 245 185
0.1632095644348363 0.0196034838575275 1.0541073830386103 101 29 5
0.1184915336254037 -0.0281203677216797 1.0254876505458512 52 45 16
0.1249638237218165 0.0679243365456313 1.0226834012469417 40 39 9
-0.0254919490182090 0.0115359360412931 0.9786606865145687 64 55 16
0.0910369137815461 -0.0874658682796418 1.0326890013611147 169 157 81
0.1599493485641042 -0.0181782282378767 1.0727291537799024 161 97 59
0.0289029843521435 0.0725321684825477 1.0063893216682493 57 55 17
-0.0255887894537897 0.0115007642254539 0.9786524580119625 64 55 16
-0.0622192265804830 -0.0573209716628338 0.9631037494199945 232 244 220
0.0978602628798534 0.0687690236230079 1.0162877965293258 211 209 126
-0.0643593094139600 -0.0566258794081478 0.9654946038283855 86 94 81
0.1113886687312218 0.0127263299158871 1.0186199879963733 49 51 11
0.1201864956885787 -0.0277917679643915 1.0258349101143072 47 39 16
0.0937831836779138 -0.0521588192130054 1.0266049726564166 66 60 12
-0.0113307142674118 0.0700903149003320 0.9898034756600249 141 139 80
0.1554495800065379 0.0206566621677563 1.0534618702635352 163 93 59
0.0364188768307947 -0.0894820165656179 1.0036155075831954 157 138 72
0.1645019317952081 -0.0448152490825409 1.0793292176947282 93 33 0
-0.0152585144053104 -0.0903305339301569 0.9812212608697014 30 20 0
0.1356238607169991 0.0684270019408918 1.0246826977127372 61 58 15
0.0667717326566713 0.0165299149443015 1.0163716390921744 221 224 155
0.0086174760521333 0.0286328635834904 0.9980055672969420 153 137 60
0.0867703643963102 0.0151400282289307 1.0177009188528436 94 95 51
0.1422913272679057 0.0680009957765080 1.0258118136098084 57 49 13
0.0836573955545932 -0.0256627435391235 1.0209218053699074 39 23 0
0.0910618804695449 -0.0520975602259062 1.0270288416255924 54 51 6
0.0835525758315554 -0.0253883558333129 1.0220262253372991 39 23 0
0.1614980628049599 -0.0438041630073332 1.0819184643404129 107 39 4
0.1246328094841510 0.0689439891335241 1.0225241140854076 201 196 130
0.0886027167031153 -0.0246861522554464 1.0245756204667644 184 179 111
0.0304409207324830 0.0734599229043342 1.0064442012519228 47 51 24
0.1055074974047933 0.0694548001852109 1.0177920560248439 204 204 152
0.1433549561730332 -0.0180436461997292 1.0652991519744848 108 23 3
0.1502780877244545 0.0685159200108381 1.0283558986717301 48 45 12
0.0014055669067692 -0.0900246390280861 0.9871693263492128 170 161 96
-0.0389293423706182 0.0123110218235482 0.9755678444069482 73 70 19
-0.0365141250553793 0.0505061674127355 0.9819177009524072 37 44 0
0.1501943564061345 0.0680962395534073 1.0273781044080306 48 45 12
-0.0003530769985462 0.0144813137812153 0.9917572059704834 51 34 0
0.0227547890310186 -0.0894170075257358 0.9967383304551447 36 18 4
0.0320127765849868 -0.0546219270858185 0.9991788952765581 56 42 0
0.0294819833758135 0.0736833625757745 1.0062115879604339 217 224 156
-0.0242958041339965 -0.0298087076825419 0.9761946069612457 38 21 3
0.1235452097856317 0.0693825098963638 1.0221605068597401 53 42 12
-0.0116448732711284 0.0505709670166707 0.9883199043067460 27 14 0
0.1625928539920911 -0.0441893379591137 1.0784437515053518 163 87 51
0.1702595456267523 -0.0186212366365899 1.0692008190932072 104 16 4
0.0874901595448319 0.0493610151819103 1.0116730830606273 45 43 5
0.0349423623741057 0.0728329518569902 1.0055244742122527 50 53 24
-0.0666681635705440 -0.0553800686932162 0.9641051394402465 232 251 232
0.1702600535380166 -0.0183582615638145 1.0701589661661137 104 16 4
