ply
format ascii 1.0
element vertex 691
property double x
property double y
property double z
property uchar red
property uchar green
property uchar blue
end_header
-0.1986221166534719 0.1687941484413565 0.8161345053865874 153 38 33
-0.1108009866881622 -0.1087610313751202 0.9441255091311545 78 52 61
-0.3179109718666356 -0.3273821345899426 1.0141251977473316 80 37 28
-0.1131481165790271 0.0456915937927137 0.9028458095104900 126 149 133
0.1894491939964376 -0.1094487126809628 1.0737281913662782 104 71 38
-0.0125726082529180 0.0510390511992322 0.8941357828869300 141 128 75
-0.1387229431429343 -0.2407211236959950 1.0896468980356195 181 188 118
-0.0558114527993348 -0.0927243046628134 0.9227273704459554 180 174 96
-0.1024544738542932 -0.0931762593964004 0.9363949159505347 75 56 78
-0.0199090664594711 -0.0909848381333414 0.9359704669575115 200 204 130
-0.1231933545259981 0.0601881190293896 0.9156944122246131 97 92 50
-0.2207788110002240 -0.2357799483865109 1.0459547677003325 211 239 217
-0.1078421047206792 -0.0848634864144819 0.9394823264742530 101 90 106
0.2162781121570891 0.0068047290419369 1.0105259410160838 154 167 183
0.0166200665739522 0.0682641322805077 0.9152424053182893 148 129 87
-0.1326817002243980 0.0048322572598182 0.9472220875786700 144 131 63
-0.2193469142584453 -0.2132985067031627 1.0305306871662343 203 216 206
-0.0342986229747893 -0.0710516138591904 0.9181806569674629 195 199 122
-0.0996579054968691 -0.2264275958259392 1.0886251129844797 196 194 111
0.1027851728082161 0.0138198033116952 0.9514167090482476 152 165 174
-0.0499358896801852 -0.0761612127110608 0.9137067400232884 192 193 99
0.0540779485267703 -0.2143758061769455 1.0853505958068836 197 204 126
-0.0700315553422528 0.0740598119788333 0.8921616272137910 23 14 19
-0.1595169433413313 -0.2067488164741751 1.0230965494279476 203 209 135
0.2288414965136362 0.0318497107992100 1.0083286710226855 14 13 19
0.0831692988913436 -0.0597762385280111 0.9714885513274740 164 176 192
-0.1401305513373038 0.0284445217596848 0.9188786124817239 220 230 203
0.0872577423647311 -0.0598262249975084 0.9738619419524986 164 180 196
0.0961991642766502 -0.2105776288236962 1.0905253228572733 201 202 144
-0.0679823591849478 -0.0603832504425448 0.9029498521184741 183 194 136
0.1979795063131540 -0.0543116936484659 1.0350277016100133 166 165 161
-0.1320264216619260 0.0354434306314692 0.9239169824068612 19 11 0
-0.0449679088924131 0.0893259486730986 0.8830334298276070 132 129 76
-0.0371687511782324 -0.0507378656908384 0.9088915328164864 193 199 125
-0.0215593961672659 0.0912588000375984 0.8869026825088886 135 127 54
0.0119340653751609 -0.1948579608600031 1.0499233701983974 209 212 135
-0.2254374800157997 -0.1823943109264525 1.0244129689612318 246 255 253
-0.0271815349765584 -0.0491590836359033 0.9099723116603136 183 190 112
-0.0319716798750433 -0.0486984581362732 0.9078433135992934 193 199 99
-0.2395643845249267 -0.1885434416785012 1.0375687446701571 253 253 253
-0.1416174379643735 -0.1725116244684580 0.9896360519423257 234 240 176
-0.0345266719872658 0.0993602966574017 0.8824358078020605 133 128 64
-0.1221001591916070 0.0409665653439649 0.9165752538379199 211 230 202
-0.0089380021494139 0.1028055087621110 0.8951153597109550 153 133 70
0.0867080025178864 -0.0421965588299790 0.9657669184503281 165 168 183
-0.0730042185933944 0.1108236602982166 0.8951207362567015 87 106 113
-0.0720837279255559 -0.0565755574343919 0.9009476150811260 64 71 37
-0.1339545629615063 -0.1674519619832697 0.9853751163591549 240 251 191
-0.0438723883908508 0.0451847557865809 0.8851441720846263 242 250 191
-0.1457532745815519 -0.1655120088169641 0.9855607156115240 238 246 189
-0.1460098149067078 0.0515307594974729 0.9133777518153409 84 52 31
-0.1334076080811310 -0.1389572029467517 0.9673597106667221 243 251 194
-0.0364545260436916 -0.0270638159396039 0.8972205785453847 196 200 116
-0.1335044454529479 -0.1387530137058186 0.9675922377676144 235 246 190
-0.0723450267274429 0.1267627979929003 0.8928127702067553 84 83 89
0.2066824170128350 -0.0203129204938551 1.0180412033337849 149 161 177
-0.0397149665731816 -0.0178010662688516 0.8927265791080313 196 195 105
-0.2160803160468417 -0.1661391453351189 1.0133728437459488 255 253 255
0.0050118570396233 0.0702904433753614 0.9023514892651363 26 20 4
-0.0800287653647022 -0.1165907890859583 0.9422328453043024 235 236 176
-0.1580158146120337 -0.1608169290462102 0.9853990853957451 244 252 201
-0.2525733902010204 -0.1284551885337837 1.0806356630310903 254 255 241
0.1534609600048900 -0.0147176202043756 0.9854126006519779 40 43 60
-0.0783957396877649 -0.1135960683846650 0.9395047433647687 227 232 166
0.0973560013391449 -0.0142105806753804 0.9599199574610776 162 170 181
-0.1777098505673525 -0.1156270887654881 0.9792392920820182 242 254 250
-0.0831113244493371 -0.1089737682983227 0.9363436970295587 234 247 178
-0.0510975588656624 -0.0097743700634848 0.8856402661364066 182 188 114
-0.3153330908915996 -0.1518241953366220 1.0812263239461177 190 103 73
-0.0030988439678057 -0.0023240186837815 0.9080494527015764 52 32 8
0.1522318573016485 -0.1046207698597848 1.0406272921214277 38 60 110
0.1855265672543640 -0.1039237170985022 1.0656924852653524 64 46 34
0.1215181814179362 -0.1301716773802398 1.0385643817220946 24 55 101
-0.0477292018956120 -0.0889852499534634 0.9244541203116203 184 177 89
-0.1268479352857370 0.0105111344725746 0.9464940207068026 161 155 119
0.1215324710702674 -0.1301127488373422 1.0386665164636455 58 91 124
0.1018659304234975 0.0074805981387893 0.9537956828319625 170 179 188
-0.0691242083977581 0.1080605667948256 0.8933996780558167 38 26 30
-0.0340979053418855 0.0100986357213499 0.8870001179216331 165 175 86
-0.0907028057226613 -0.1129035905729227 0.9415141213747523 233 241 184
-0.2288370550254020 0.0132512813128523 0.9675995411299972 253 244 77
0.0993324187369371 0.0186186144252344 0.9491600709042814 166 178 192
-0.0467555141735282 -0.0677649660069684 0.9108403233565734 195 200 108
-0.0557329589778692 -0.0644488969156652 0.9072757274332081 53 60 18
-0.0308587724490631 0.0264696714567414 0.8849146043619412 192 196 119
-0.1378552984297614 0.0310419914885760 0.9171381166060899 213 230 211
-0.0626444593878940 -0.0553433949505595 0.9012865079237908 213 220 143
0.1627348262810958 0.0406015707248441 0.9746248764320440 178 196 210
0.1626357793694939 0.0406533013462834 0.9748377751798167 178 196 210
-0.0136403712334462 0.0363176441672461 0.8953661957888561 140 129 67
-0.0362520384517189 -0.0481251936231987 0.9064960650912723 204 203 113
0.2156716706784306 0.0506405784076315 1.0021412673410117 85 110 130
-0.1328564674302762 0.0443813336208812 0.9132569479036322 137 144 100
-0.0528328439554125 0.0478686968993731 0.8873135987768146 92 106 81
0.2103753906453845 -0.0297227872503202 1.0241473298298214 157 161 164
-0.0557808753672674 -0.0282135250504427 0.8907430897791442 195 198 121
0.2055180212203479 -0.0162652605964810 1.0158209052678955 32 35 40
0.2164224193726649 0.0661420501002875 1.0030381583810921 23 27 30
-0.1119495323871888 0.0628778248880876 0.9008615624942892 122 121 116
-0.1719121197719214 -0.1165592743224812 0.9766678190319434 178 209 203
-0.1719021503173621 -0.1162366833388553 0.9760631802677072 153 182 177
-0.1106197285691357 0.0712551531789812 0.8975877635301250 55 49 37
0.0359553053302442 -0.2271296978833286 1.0981326371241338 103 113 60
-0.0415400595346446 0.1004218430494257 0.8807669806862903 128 128 66
-0.0655992862948760 -0.0903326001201931 0.9209574406204297 244 253 208
-0.1703132536786993 -0.1939443627872521 1.0075449625749546 237 246 183
-0.0249634140942566 -0.0953907429867195 0.9378230812259882 193 191 106
-0.0535290647612989 -0.0491430294034829 0.9008007638657027 196 204 129
-0.1535062355884695 -0.1677004221287735 0.9882605031644360 113 116 71
0.1522610856987623 0.0106982069635243 0.9816330548841895 191 217 232
0.1419039933390306 -0.0441674703766136 0.9953660069449343 183 193 195
0.0479171947987712 -0.1843891792369794 1.0501445658697375 103 114 80
-0.1407854286035171 0.0161736977090280 0.9242498370370239 247 255 251
-0.2045855009120930 -0.1669482110095130 1.0063133407207170 254 255 255
0.1569868787943296 0.0418469817490443 0.9762080830137797 189 212 230
-0.1323788739141967 -0.1101809584201504 0.9537809107213626 71 50 49
-0.1802490574784795 -0.1353027892724581 0.9854454765852579 222 244 241
0.2167522258318280 -0.0469750540447810 1.0370470514888224 133 131 132
-0.0410156660853612 0.0066218757599060 0.8851902143191716 198 202 126
-0.0781976067330781 0.1265312122959490 0.8957598475497901 28 17 15
-0.1325057060059964 0.0487922419895148 0.9123780957572192 133 135 85
0.2245998234417536 -0.0259688940155033 1.0271731007977090 147 151 160
-0.0055681846138140 -0.0199551222168344 0.9119863702786913 56 47 8
-0.1180056729180287 0.0417793354599361 0.9130681647127132 244 255 247
-0.0631354032618162 0.1384963170675567 0.8823167368501174 31 25 29
-0.0217092689890843 -0.0095542405514651 0.8981288361441723 181 174 83
0.0661472585161145 -0.1322701040650441 1.0107242889677814 166 178 190
0.0799986737029362 0.0339956096739968 0.9434129702020563 212 234 247
-0.2187400682085631 -0.2028331214512390 1.0610068602319522 180 206 197
-0.1998000959537954 0.2158899087545967 1.0674131894852739 84 96 82
-0.2125067422396110 0.2250967701253753 1.0230282714426460 160 51 82
-0.2398148735745555 -0.0092201872841095 1.2907877030563029 214 196 156
0.0386879594688886 -0.2566086852374077 1.2857098087753438 107 43 15
-0.0685637497856753 -0.2638839308712944 1.2477530639112662 88 65 21
0.0605889306552485 -0.2581445532938748 1.2650895873585812 198 110 62
-0.2605102770724507 0.0792311888525018 1.0821234307373884 151 70 79
-0.1962468360034420 0.0885719989134796 1.2524580713933351 148 142 118
0.0888086134710333 -0.2555106044580751 1.2185838359730399 230 142 94
-0.4103229599143345 -0.2665381924969853 1.0559101803329336 42 19 29
-0.2478047012137456 0.0230433660501358 1.1998169762553297 160 153 143
-0.2498566619087277 -0.0219750110845223 1.2801353211884026 204 175 131
-0.2344909013198284 0.1673486384568714 0.9796106936646011 85 7 0
-0.2609784487721158 0.0632680469053805 1.0821372690841469 143 102 72
-0.2895819104987131 0.0138129002392591 1.1561866954639501 194 42 54
-0.3917796308837385 -0.3333699419880319 1.0442209179085049 234 252 254
-0.2775147197268330 0.0184164170465701 1.1532311559468020 235 102 129
-0.2113561847358990 -0.0321166528548664 1.3212726437983797 92 63 59
-0.2118797802599206 -0.0321730451286358 1.3214419807910536 47 26 25
-0.2558385449539055 -0.0317165668199627 1.2763922709418123 157 123 147
-0.2399806322016124 0.0569105971841899 1.2164830203474684 255 255 253
-0.2410529605147074 0.0833061574555710 1.0404731009389445 255 249 167
-0.3559250483194891 -0.1489592166370858 1.1969824506228943 205 31 58
-0.2664455802201558 0.0435257570366401 1.0990749093610359 255 236 174
-0.2453112178509794 0.1117490521802617 1.0475420942300859 129 21 0
-0.1558371651155545 0.1814172824134567 0.9008425051108051 168 86 109
-0.0562081042828538 0.1914390401589695 1.2178914065719293 129 82 54
-0.2457446285114388 -0.2741816132367503 1.0887222360565632 129 146 130
-0.2555863490519402 0.0896522550022244 1.0704133354384311 85 40 21
-0.2470000527816010 -0.2808843232974258 1.1009491670770024 69 73 59
-0.2530365862471794 0.1108053546736961 1.0203628817308239 72 35 0
-0.2705517745370581 0.0240565446652718 1.1263266382083394 252 253 113
-0.2302394003811624 0.1549582817367738 0.9860316720492821 109 32 22
-0.1571507392795221 0.0931546232853498 1.2864146928742080 131 83 71
-0.2439021397802799 0.0694813346242479 1.0437412770364773 255 242 173
-0.2245205464198345 0.1972122908978075 1.0002181291950014 168 22 22
-0.3471534291997709 -0.1592411441943718 1.2183755339967366 218 163 132
-0.2668639133758017 0.0254722376267977 1.1107282136881749 255 250 132
-0.2684608297829180 0.0241590510628398 1.1118265489763357 255 255 190
-0.2512974339863460 -0.0239113905262789 1.2770579372308055 241 229 207
-0.2522017276681111 -0.0259248588754633 1.2779365797194822 237 225 211
-0.2193040943728068 0.0930348789602635 1.0531600572821798 191 70 77
-0.2879831905292534 0.1379644554366642 0.8102372501882105 108 117 134
-0.2742356912227641 -0.0541111978033974 1.2517799478342369 113 112 108
-0.2779890827815318 -0.0705385575463521 1.2485739997585181 139 143 146
-0.3457719154550678 -0.1633441263197914 1.2216670832156473 212 169 134
-0.2627104613781257 0.0270820826096886 1.0841875102235030 255 253 113
-0.2723202538597567 -0.0524474427506974 1.2484356155856362 209 216 208
-0.2496606228386401 -0.0678736910915248 1.3027744727349821 140 109 91
-0.2503617047917434 -0.0190575969665406 1.2496561596285443 235 180 159
-0.2627161545565664 0.0436166474438556 1.0990604933241537 186 117 86
-0.2822326512352349 -0.0091608385553431 1.1386705047837744 144 38 48
-0.2268352773743736 0.1649610030698032 1.0179505872829877 200 85 88
-0.2758203122803880 -0.0701574912643562 1.2780715171762080 205 188 134
-0.2184831472836619 0.1693468365594089 1.0161915935533865 251 198 128
-0.2287339504382884 -0.0523289112535482 1.3143152567519201 145 103 65
-0.2405794877763511 -0.0701567743326527 1.3087444945552114 170 136 108
-0.2222053412032880 0.1684696226619044 1.0056114256228801 255 218 141
-0.2268649535797294 0.0478937381657201 1.0402796230769855 195 125 115
-0.2808991608623497 -0.0149455661218727 1.1381934409105534 123 31 16
-0.0453378715728321 -0.1556882389044443 1.3959899964899489 47 28 11
-0.2657383186877748 0.1117976244318696 0.8562868125656862 190 174 175
-0.2369961456977128 -0.0177441290907079 1.2912971868732732 199 185 140
-0.2877156559891808 -0.0768787584883832 1.2606133029978694 26 7 11
-0.2251849282538146 0.0227368944330866 1.2848686954685975 225 201 153
-0.0905884704715369 0.0651328367891334 1.3570750496868924 207 156 139
-0.2799151750443028 0.1286357131381674 0.8238502784767305 88 72 82
-0.2532318212919949 0.0718407153449606 0.9429735812329010 230 121 162
-0.2753705692359271 -0.0865555590754133 1.2867104797581186 206 179 132
-0.2793358095919158 -0.0178435827055880 1.1495378067457318 180 80 44
-0.2756614634877734 -0.0252858767814112 1.1439944441598628 197 128 131
-0.2786690123852111 -0.0888977652925920 1.2845626284567264 178 142 116
-0.3054295757278704 -0.1884797439128267 1.2623261059892186 67 34 27
-0.2826423334515711 -0.0717589604732199 1.2633141062944009 199 209 211
-0.2919430751885726 -0.0956061750322460 1.2717464788687192 109 12 23
-0.0117053614237955 -0.1612289941529050 1.4102474660459436 85 69 35
-0.2146516548278982 -0.0919131291805401 1.3299894803352377 142 37 34
-0.2709911989650257 -0.0989194020195939 1.2912791831252006 58 21 5
-0.2708392431857413 -0.0988223695042559 1.2912431177183217 64 21 12
-0.2823714026447442 -0.0999222682212089 1.2800879575057715 176 98 86
-0.2353317524578265 0.0261446873210518 1.0214423684501321 172 120 81
-0.2813384653301924 -0.1025544698094773 1.2823746731860324 114 50 41
-0.2410070859865968 0.0527921147529893 0.9493192710112276 253 253 251
-0.2404825810295066 0.0516399193838558 0.9520820127634434 164 96 133
-0.0284842988244354 -0.1659307764672571 1.3950047032862432 95 81 44
-0.2882956168124523 -0.0783300862475093 1.2598433406747176 152 164 164
-0.2388518585709856 0.0526446856830065 0.9511072113167337 186 142 159
-0.2580765859267271 0.0901948874356401 1.0806056353350750 250 217 76
-0.2872958501337364 -0.1051164911038170 1.2786587156233620 146 123 115
-0.2672377405760896 0.0609620276829021 1.1310827024729166 226 81 114
-0.2765263939634574 -0.1057284960204168 1.2871637896347023 59 24 20
-0.2768649241486273 -0.1058893971923858 1.2872291686436592 54 29 24
-0.2892407065679472 -0.1072779671330258 1.2753766000243010 146 133 117
-0.2443591805074759 0.0516897794864636 0.9807324751607890 139 56 74
-0.2749740897073737 -0.0944969583403743 1.2873238845648549 169 94 73
-0.2529267001507456 0.0968030354601910 1.0631947224529079 255 242 173
-0.2953219068352528 -0.0955910821727657 1.2693174184276470 164 53 60
-0.2962413731694489 -0.0964788266049276 1.2638273152505917 178 50 73
-0.2639074930060205 0.0314029744045147 1.0883905225732342 255 252 176
-0.2801027724124662 -0.1195647195275102 1.2844292206462868 74 46 42
-0.2999924321327716 -0.0979937094605814 1.2644325534488667 96 5 4
-0.2718587263425201 -0.0375361437553967 1.1480998021764781 140 14 2
-0.2644458357343113 -0.1026837796817151 1.2962190192787004 115 63 41
-0.3192000381858890 -0.1426979827723616 1.2899027083028369 55 36 22
-0.2282449691287680 0.0171179194256954 0.9664154922928295 212 97 100
-0.2748328716635801 -0.1084942227611550 1.2866318948124491 156 144 130
-0.1966392284036940 -0.1243278705921674 1.3406064731630185 159 131 83
-0.2156589252608985 0.0889015330980389 0.7994840446337657 82 78 95
-0.0240840098368175 -0.1878459549753766 1.3783535663816873 107 89 51
-0.2918370886712569 -0.1115598994126133 1.2744168546837769 124 116 105
-0.3170553402058469 -0.1374919205773329 1.2517741053724831 165 37 50
-0.2093104166666531 0.0716906933450176 0.8051407666939114 206 143 162
-0.1895250893693398 -0.1142803609293107 1.3472997655012489 173 106 79
-0.1060578292111377 -0.1249968589179970 1.3711846495655593 149 92 72
-0.2407046284090472 -0.2154715812897005 1.2840786824255133 110 75 56
-0.2282346475796622 -0.1414449084489484 1.3184025511962503 154 118 68
-0.1815630172606118 -0.1458878242440304 1.3497922378639733 114 83 65
-0.0556070157455805 -0.1328554674726311 1.4043447964005862 138 102 50
-0.0420372838186010 -0.1332177820493460 1.4159995475435145 110 83 38
-0.2488326703418167 -0.1197292271765779 1.2752798700619923 146 118 97
-0.0412185006515756 -0.1297047223630571 1.4196279769033007 107 83 35
-0.3509128426278890 -0.1491161213253205 1.2080371395177010 233 195 150
-0.0269720429675669 -0.1354502592099377 1.4244634112863412 43 29 20
-0.0411195567707558 -0.1393605056570247 1.4125625095393539 108 86 39
-0.0589561931538659 -0.1334090423379783 1.4009029604469452 73 40 0
-0.2456136306982373 -0.1643014263498145 1.3054574271681514 109 74 54
-0.2879279906487351 -0.1667104805686363 1.2769607700501653 57 38 32
-0.1624720035835836 0.0579750602906238 0.8172484876573416 102 87 82
-0.0572345372551101 -0.1423463261604217 1.3969623179762711 73 47 12
-0.0404385688072869 -0.1366546074261071 1.4118360911677392 48 23 0
-0.0548502438323332 -0.1447580007358440 1.3973521959332973 121 94 49
-0.3388301604428068 -0.1731414632849578 1.2297969293229760 94 75 97
-0.0129128269686556 -0.1445916252948768 1.4232654733523560 46 33 14
-0.0565474992064760 -0.1401317470419117 1.4000202229342269 62 39 0
-0.0307736794470697 -0.1464591641494022 1.4112353036765906 114 86 49
-0.3379184468549131 -0.1719353037700981 1.2350021068036094 170 123 97
-0.0338410938826984 -0.1567269451083474 1.4001511706265273 121 98 48
-0.0512377710256707 -0.1524308693694687 1.3936057560753667 35 14 0
-0.0379528854030746 -0.1597348712642007 1.4028052617807159 33 21 0
-0.2627544565359619 -0.1793628968703862 1.2890131476564948 103 75 54
-0.1394920269923615 -0.1722555471156520 1.3423323242648511 137 90 60
-0.0421244093293809 -0.1615736683402320 1.3867209788955925 95 76 34
-0.0169297947958991 -0.1578466121513709 1.4108243546064225 93 78 45
-0.0277816096879842 -0.1625791709139440 1.3951610488658543 79 66 32
-0.2236202618270907 -0.1869258550436845 1.3116372678092196 102 65 49
-0.0438297840389536 -0.1663296573890375 1.3834756521596248 99 76 32
-0.0279071617126631 -0.1668573402294725 1.3923525219162101 21 9 0
-0.0120698933770286 -0.1634155172297724 1.4092503445494358 31 25 3
-0.0212829680072015 -0.1640709324761332 1.4004122394890854 91 82 41
-0.3758541639668294 -0.1837882562129838 1.1846089466647678 165 160 130
-0.0464498052072989 -0.1655572625216743 1.3815535706860274 103 80 36
-0.0010068675778652 -0.1720735746148880 1.4054525314447637 37 26 8
-0.1931273898711391 -0.1931086430775782 1.3291808747062219 167 131 115
-0.0222460511716683 -0.1727511451961899 1.3905576929719894 107 94 52
-0.0450088207800505 -0.1712691048994321 1.3753323866879850 73 58 29
-0.2280493771917148 -0.1969164170523449 1.3054294371328150 145 126 111
-0.2629171656835762 -0.1973429815239854 1.2820863578082591 131 99 84
-0.0161762050781446 -0.1735096007425128 1.3939707762935303 82 70 32
-0.0042484848475522 -0.1732160869498497 1.4016501039391565 94 87 35
-0.0434481115457757 -0.1742995943099934 1.3738663189927627 97 78 38
-0.0389989140939945 -0.1745599394506519 1.3771124472717580 47 28 0
-0.0201483920627323 -0.1750513503752016 1.3903012258218399 25 9 0
-0.0418826570962958 -0.1757168762537256 1.3732527323258574 36 19 0
-0.2345493060740544 -0.2000120497086814 1.2994552485491588 89 52 36
-0.0368757703085645 -0.1772405178170199 1.3750721045537728 55 36 3
-0.0383437082683281 -0.1806394414902990 1.3703124034724008 102 86 60
-0.0317549266415432 -0.1825556544302477 1.3744584675600058 100 84 35
-0.0038397357431353 -0.1804425601585911 1.3965114622123753 35 18 0
0.0052025693333202 -0.1892465125753967 1.3983743565587394 31 16 0
-0.0013939870385377 -0.1926324267969142 1.3967669770291118 90 75 32
0.0026859943538565 -0.1927992065523159 1.3995983797962370 103 89 40
-0.0045287631927611 -0.1846259731121971 1.3944413730303091 112 92 57
-0.2506802689970704 -0.2139503357343220 1.2807877576732083 98 64 39
-0.2454081894753773 -0.2198806064595800 1.2779584482349418 87 46 26
-0.2433204254802840 -0.2205033005449007 1.2791786948061308 89 51 32
-0.2355321367470138 -0.2213119674212275 1.2836351507369703 89 54 34
-0.0323498385221947 -0.1862267198106070 1.3701451906968880 35 22 5
-0.0321073296259623 -0.1884228694922193 1.3714896343455623 98 81 37
-0.1679723920263221 -0.2276469473097962 1.3198697106379371 50 28 17
-0.2244398428257049 -0.2278455288210758 1.2820103878428397 106 68 47
-0.2094016603837876 -0.2370340525186773 1.2797535618833036 64 20 7
-0.2449107003853653 -0.2389061702503766 1.2591274839820259 79 31 19
-0.2435641859804942 -0.2402408614644961 1.2581556630859849 125 84 62
0.0365270319968675 -0.2505746271558131 1.4220040817441366 73 64 59
-0.1764463763709309 -0.2190350171430430 1.3201638552734909 75 45 43
-0.1716334665368584 -0.2231803785808372 1.3200444483686316 45 21 9
-0.1785629395626119 -0.2279791257426226 1.3105615415540843 100 77 69
-0.2087463221915274 -0.2289286309050785 1.2905801500086709 49 17 6
-0.2364624554348093 -0.2301535962350895 1.2724219754339776 77 31 16
-0.2276975691498556 -0.2309609545967591 1.2754931685426483 89 46 30
0.0240482661134780 -0.2296277446649687 1.4101608854601801 37 27 18
-0.1968472155330248 -0.2358234870405503 1.2887201173648999 53 16 8
0.0735159197502703 -0.2574046534587689 1.2415697618826567 210 121 65
-0.2479828081976450 -0.2788986400852169 1.1001404421122507 126 129 112
-0.2471762209621106 -0.2803894740156489 1.0985422695762264 128 131 112
-0.2292603294531300 0.0957279747935383 0.8000405355046623 147 149 164
-0.1978520334440106 0.2095714449646563 1.0928355515283690 205 197 186
-0.2195737327685756 0.2092834079308953 1.0129147326457253 200 36 60
-0.2585416002497882 0.0797731646127083 1.0777388174189273 255 250 158
-0.2592738987458179 0.0766408236214683 1.0802055063550862 255 255 110
0.0260840053512829 -0.2182243832833280 1.4164147873971658 20 12 10
-0.2224404721341335 -0.0123802529108649 1.3079891602464069 175 148 105
0.0204485448722881 -0.2238591667079891 1.4085205720776026 32 27 21
-0.2041902641121358 0.0441993269243066 0.9031902839554600 203 180 186
-0.2550257786484059 0.0855442369173090 1.0659248956548613 255 251 170
-0.2649725539537803 0.0651728141105899 1.0903806444103699 255 255 154
-0.2571745270950584 -0.1339765786741043 1.3003377454339438 76 40 26
-0.2261788802922193 0.2066756205549999 0.9948889489469447 219 180 103
-0.2876610007779584 -0.1370970458916345 1.2788241009595531 46 31 26
-0.2615254365932881 0.0724190702865739 1.0851704874994812 173 80 90
0.0354893587768410 -0.2284451619678040 1.4185502779634369 62 52 50
-0.2284991236374448 0.2035250132568306 0.9903159666934668 206 111 93
0.0385130438982693 -0.2350911879271587 1.4241047939552962 105 95 85
-0.2246269140884403 0.2010371074680473 0.9999864716227683 238 161 115
0.0273123373376956 -0.2347554637585461 1.4125512583032847 70 60 51
-0.2652289853851263 0.0582161879033550 1.0999598207030463 255 254 170
-0.2560052767746890 0.1780501699725012 0.9863969167447773 234 81 112
0.0094052991392447 -0.2420869208782405 1.3976938663140570 52 39 31
-0.2465688019984939 0.0945370820840868 1.0252889313637841 255 239 136
-0.2372416740522128 0.1899765420534197 0.9805460899454793 180 130 43
-0.2346245944507148 0.1747184220929576 0.9817554533394396 201 170 28
-0.2645195543046449 0.0545705548326060 1.0934721122135629 196 86 97
-0.2622943520428155 -0.1404980132130163 1.2957981658988935 94 62 47
0.0129249584528660 -0.2456380300417598 1.3983954774260074 114 106 95
-0.0643024313545081 -0.0561057918014826 1.4169726307183561 91 42 37
-0.2464614643617379 0.0619657693689974 1.0476696887430408 248 118 142
0.0088164856932572 -0.2487365281342444 1.4010247935019147 49 39 30
-0.2078933667280189 0.2502729816743803 0.8425395251535770 255 143 159
0.0243792062885401 -0.2524140060127646 1.4137240541228826 72 57 52
-0.2467279859706080 0.1857514722929497 0.9699492349115482 246 192 128
-0.0313595244011756 -0.0504871152292169 1.4351738189095544 129 76 60
0.0106588800640235 -0.2536653955362729 1.4050468049116893 73 62 56
-0.2438213852100830 0.0808133462581513 1.1826778507365538 194 193 162
-0.2678513311419178 0.0125806494878976 1.1724232055254955 126 41 60
-0.2612622276479222 0.1187209811530591 0.8899429473867031 244 255 255
-0.2250504462050908 0.1783839060885065 0.9977447586326529 238 176 129
-0.2400285789660688 0.0814600578763773 1.0420772098292841 226 134 121
-0.2431991613095841 0.1804456105749470 0.9719743270905997 209 171 72
-0.2502912570156932 -0.1436414275404436 1.3040729106264193 61 36 16
-0.0122575763369362 -0.2599982772807529 1.3908074217447954 91 89 74
-0.0065374527030512 -0.2612054133901888 1.3953327419023700 111 100 96
-0.2193466868869704 0.1735136987514088 1.0104733032377469 250 220 134
-0.2446340613906659 -0.0691584385426148 1.3065948442327180 93 46 38
-0.2313145073445081 0.1764970157787899 0.9857885665973181 219 145 98
-0.3016602533343760 -0.1048192232473259 1.2631725857111866 124 135 139
-0.2603170293945257 0.0874024483953183 1.1262369318548893 124 41 71
-0.2778070251641942 -0.0682859487982889 1.2693036964682403 231 237 225
-0.2339054006714440 0.0055140261454227 1.2759249768491527 255 234 200
-0.2389712040169375 0.1669165017502090 0.9765051874559224 218 161 94
-0.2484998469127987 -0.0170845179574860 1.2299911841951527 182 159 141
-0.2282807175314303 0.1624161614234329 0.9896482332167182 247 208 129
-0.3494011442675803 -0.2819133902949510 1.2085508337862316 134 106 59
-0.2414214558765584 0.1365947378986406 1.0655400036198890 255 228 81
-0.2822910195737195 -0.0656857497516594 1.2502728231286115 175 188 181
-0.2697509531608083 0.0137309384929552 1.1348894437873820 255 255 184
-0.2199326683204222 0.0214233181893577 1.2941637300214599 134 88 65
-0.2821367396068082 -0.0744349274284671 1.2652324357716249 207 210 201
-0.2676428032132984 0.0151033765059648 1.1304076768805216 194 147 139
-0.2676027802864474 0.0177296468966495 1.1225926332253704 164 38 42
-0.2590064504748349 0.0792496986930320 1.0742904589935744 233 128 124
-0.2675879416806015 0.0148092597229795 1.1262995764525956 255 250 122
-0.0433146878542421 -0.1306091020774062 1.4157603328729564 55 33 9
-0.2508138245258116 0.1183343009062102 1.0464555116818715 106 32 23
-0.2388271513884936 0.1771307833749511 0.8804284082546131 251 239 227
-0.2901566010914326 0.1436397685710772 0.8062057827537006 211 244 255
-0.2527510810383159 -0.1548499192652949 1.3018832883725724 107 74 57
-0.2156921423903813 -0.0017793722079122 1.3081403832107252 69 36 21
-0.2751406133439140 -0.0264791866186415 1.1479170463191617 255 252 151
-0.2492885413331656 -0.0596385451638446 1.3001207369832539 170 144 111
-0.2485883659004749 -0.2775131811895969 1.0956745945645912 132 136 109
-0.2481954968030250 -0.0620632114318374 1.3037938778363554 114 52 41
-0.2476079510215709 0.1127723649170166 1.0476777844475305 239 183 70
-0.2494168317928541 0.0857627583936575 1.0361856443731599 209 53 77
-0.1844571281538657 -0.1243322008773852 1.3494189574604083 160 118 78
-0.2391374059576488 0.0538332203541128 0.9545554693368354 255 255 255
-0.2590599426671562 0.0908114203415003 1.0761549200216056 217 96 101
-0.2034968709237853 -0.0246697393441709 1.3271790120981788 159 128 107
-0.2731080484154741 -0.0539901359455078 1.2580749018449648 189 202 185
-0.2714351990981017 0.0433041917688902 1.1563703876863125 135 46 74
-0.2760174348362270 -0.1091415601429374 1.2874702156220219 124 113 93
-0.2655698380390147 0.0146059091601582 1.0967936486128971 255 242 167
-0.2473607403500358 -0.1625152738104198 1.3034622746602786 166 145 124
-0.2668173848254498 -0.1644467963423252 1.2909611348566448 47 25 11
-0.0472274405700466 -0.1302694043381859 1.4124334261452345 119 78 32
-0.3161240193447316 -0.1241839501836145 1.2515100176719580 37 2 6
-0.2776861155447297 -0.0675029594655027 1.2693508993222371 220 237 229
-0.2666953543929199 -0.1235279010023073 1.2940398811117482 148 133 110
-0.3283817448130169 -0.1216638187432546 1.2342123007606718 123 30 40
-0.2551421834038393 -0.1265018625119576 1.3027148829363455 161 151 115
-0.2630505215208845 -0.1693780400018188 1.2920895975648663 61 27 18
-0.1846199131131865 -0.1279469215484847 1.3501304603428421 157 113 78
-0.0275072360614365 -0.1432424224544314 1.4168776198026372 41 25 12
-0.2825923735894824 -0.0731491672993208 1.2654135098214359 177 194 186
-0.2836461993756705 -0.1715015960573993 1.2785901576191485 60 40 33
-0.2320759349836549 -0.1537377961789698 1.3143002417647041 163 143 119
-0.2617215432870055 -0.1728393118963481 1.2920125553835700 152 140 118
-0.1720402288654049 0.0568311086847889 0.8154868146034899 139 97 98
-0.2778274412457745 -0.0188887079609519 1.1369540708142665 253 245 38
-0.1593623331299122 0.0569999986804714 0.8236990568534337 110 87 79
-0.2605107450034825 0.1072209301358848 0.8637731558431266 174 152 155
-0.2365521859420283 -0.1626467788688385 1.3115422669169257 80 44 30
-0.2368084270562502 0.0448958216614647 1.0083472759626615 239 118 135
-0.2395628126548772 0.0298595083989192 1.0356145826809544 255 255 205
-0.0469714063017633 -0.1603401902851540 1.3865088422937291 20 8 0
-0.0501775144039824 -0.1488725572518706 1.3948784036471999 128 93 53
-0.2059166164704797 -0.1833434386408638 1.3245697714702085 55 25 15
-0.2908787897696062 -0.1041933676624525 1.2752780329659108 114 105 100
-0.2998397578759306 -0.1059152699857227 1.2692839856412483 113 94 96
-0.3605056557642639 -0.1768861986772955 1.2081012031911471 57 19 30
-0.2972527855079873 -0.1072691207567212 1.2707150156182065 38 24 24
-0.2931719948625643 -0.1105943057821153 1.2731513829916972 54 29 32
0.0414474117111998 -0.2283650575504153 1.4240563737526641 106 100 86
-0.2732676386319044 -0.1141012011941444 1.2899422196417061 137 131 107
-0.2919749834118556 -0.1165141497354120 1.2760113060630933 52 31 30
-0.2676792801941674 -0.1961509902548759 1.2840812021848902 90 61 47
-0.0024440268935995 -0.1756536433734046 1.3994817315402761 36 23 15
-0.0413309558283813 -0.1778831694786931 1.3731690810336954 97 73 29
-0.0233291409026606 -0.1845754850383656 1.3775587408331107 38 26 10
-0.0398401593732149 -0.1873377144540312 1.3678902946395826 100 82 20
-0.1856973773637002 -0.2041497789905974 1.3255543502456102 147 125 111
0.0211685230276176 -0.2636464947223604 1.4183518593593296 118 108 99
-0.0000160294591594 -0.1872510007180193 1.3952603280924067 40 27 8
0.0292874465681963 -0.2648904057918048 1.4256553701820074 111 100 94
0.0472629104341806 -0.2140091917484636 1.4264246782433061 104 94 92
-0.1810161031198387 -0.2088028036435307 1.3255014538252881 135 114 95
0.0743343845729687 -0.2543102411897384 1.2389541259661330 178 57 48
0.0681682574936135 -0.2635206877467252 1.2679928149989748 177 28 32
-0.0660115716648514 0.0038400839132680 1.4044482811761396 153 118 90
-0.2546187140088387 -0.0333964746523947 1.2807650303708500 189 141 141
-0.2683304032287754 0.0353840700661789 1.1111371500535072 244 69 102
-0.2272115773027714 0.1112425621535009 1.1748382507887354 224 208 156
-0.0462131646957501 0.0001032940025606 1.4133725930736973 130 73 56
-0.3500548922580395 -0.1527779092438326 1.2121045280729534 213 204 145
-0.1971236116930129 -0.0376288886678998 1.3335074845313939 154 114 88
-0.2275933384353351 0.1869517184162112 1.0006265064079103 236 82 106
-0.0603825689051075 -0.0397109069867292 1.4182189287513502 154 109 76
-0.2283221522830621 -0.1988967312452472 1.3020736680596159 129 112 96
-0.1887103924435363 -0.0605446746263590 1.3443253093410226 103 47 46
-0.2208107624635070 0.1805429530848971 1.0055132213771825 195 146 80
-0.2129328797100604 0.0044263636505894 1.3073561266052214 128 86 64
0.0387476682626229 -0.2408231517231315 1.4267467798505338 31 27 24
-0.2588252874479602 0.0487851688813969 1.1803718940374237 122 104 118
-0.1562656400786819 -0.0661889900137750 1.3684667965054704 142 104 67
-0.2483396012783142 0.1195035739431698 1.0360968573924971 227 50 76
-0.0023223030308474 -0.2590210743248330 1.3971467456211688 115 105 96
-0.2561138747776922 0.1172632460649326 1.0143566638750545 234 67 93
-0.2501123538121916 0.0818525511168280 0.9304729272319520 227 251 253
0.0668657543396411 -0.2604186460911627 1.2575590524240963 190 113 43
-0.1620835839017732 -0.0743915191225381 1.3650173895193145 98 55 46
-0.2403032514310032 0.0686139343968170 1.2031924835450525 229 223 207
-0.2415682121410873 -0.0115660987676652 1.2881115144253439 165 148 122
-0.2154835919447602 -0.0087533593805063 1.3112319537822090 97 63 54
-0.1913100098757932 -0.1006092167887935 1.3460927584522997 137 70 51
-0.1722167985570053 -0.2195944490689253 1.3243336875994685 142 118 106
-0.1840630513973348 0.0728474102996806 0.7832071671221332 247 97 124
-0.0415952329055417 -0.1067420623077121 1.4247214238981463 88 68 35
-0.2492969894718847 -0.0251459806076535 1.2822130672707919 204 200 173
-0.2977039015376334 -0.1582339293304665 1.2711725893243417 36 24 28
-0.0413152905583789 -0.1521907256919540 1.4014168716534627 40 29 23
-0.2576223416175663 0.0703418817297939 1.0683577022336832 255 135 162
-0.3951786146042509 -0.2506616936099481 1.1820063972918420 193 168 174
-0.2449656934247762 0.0600098545316499 0.9396876754703742 174 183 200
-0.2335921358461681 0.0273968690278335 0.9757820890317018 243 83 109
-0.1634588296858512 -0.1166946400695331 1.3651246414618377 105 40 44
-0.0545972820911959 -0.1286758330993763 1.4123220601968143 132 101 37
-0.1096340596855659 -0.1329242632782607 1.3700331216475787 69 23 23
-0.3597805675109327 -0.1556319039620839 1.1967781277751945 188 171 119
-0.2546792535927542 0.1026740523860253 1.0639638366130877 239 213 68
-0.3331212835238003 -0.3268042515167479 1.0663250822850499 76 45 40
-0.2875065314732506 -0.0746811883527565 1.2330645293125588 204 231 242
-0.2179962828625564 0.1989970250307155 1.0085468448175345 207 35 61
-0.3878894788751091 -0.1728092663532924 1.1387435304913947 179 56 85
-0.2105789139293264 0.2093650243754361 1.0284676878435273 226 66 92
-0.3053841952617554 -0.1122611819984409 1.2571259153970378 143 162 168
-0.2477550620658124 0.1076393253069979 1.0365734018464083 226 32 59
-0.2269093470074461 0.1537445790701516 1.1146906166854311 125 107 107
0.0158602750648993 -0.0944666708839607 1.4779283887619858 26 22 23
-0.3688292822011162 -0.2047550334041523 1.1286158836203197 165 136 138
-0.3838591482849847 -0.2095239196512417 1.1019895984813386 145 115 117
-0.2424351501569759 0.0866220377320736 1.0391366762353547 255 253 156
-0.2260754073043942 0.1632322864742088 0.9989735252000113 214 54 78
-0.2632080571414163 0.0426041712584462 1.0877235784594019 255 128 162
-0.2270286476584107 0.0125755652983541 0.9792792794775073 255 255 86
-0.2629487775298186 0.0343209915167288 1.1747064993780159 210 229 246
-0.2588773347112662 -0.0277218377023968 1.2183281781332507 153 158 138
-0.2585138709133151 -0.0276181742008030 1.2183612637271384 143 156 128
-0.3891188279077462 -0.2732031052476612 1.1864673521807394 64 36 33
-0.0364521199458043 -0.0687959113094618 1.4289853224771940 65 35 33
-0.1912499064207202 -0.1675502555729656 1.3433415311111445 134 106 58
-0.1789273371563742 -0.0980556410427785 1.3535314791664257 75 42 49
-0.2579667244616985 0.1616946347829256 0.7401851455981913 108 96 110
-0.1756926139645797 0.0550443187057747 0.8310770399596735 233 231 182
0.1196346217734533 -0.2707483100913921 1.2557283651135112 103 72 70
-0.2297789281535048 -0.0557253378044118 1.3129581651954747 169 152 126
-0.0933886362527981 -0.2425147108755263 1.2971037360555193 44 29 24
-0.2483835644761342 0.0887997289703007 0.8929951654250978 139 112 121
-0.2137303610556452 0.0782508684223781 0.8174702719774303 120 106 121
-0.3869561687808803 -0.2836681135181173 1.1767884248074472 195 170 174
-0.0301913878724209 -0.0382580845069591 1.4331058296496750 52 38 35
-0.2278232378980797 0.1005115141237567 1.1876119688354427 229 225 187
-0.0173629559604857 -0.0787403705679293 1.4428861141153098 147 119 71
-0.2406742427941244 0.1309021010597600 1.0036337300398137 249 176 161
-0.2644455129322656 -0.0564349062346267 1.2755854858607465 226 217 152
-0.4201485727804433 -0.2535887126285818 1.0678747058091635 56 48 59
-0.2624848190278541 0.0926917358902629 0.9208635399192313 229 255 254
-0.2864958859474163 -0.0983720304276203 1.2710959695717541 110 92 88
-0.3205638124194323 -0.2094739555754086 1.2406309885649773 53 32 29
-0.2378528902429465 0.0395461080395952 0.9836644388563028 225 38 67
-0.2967589609039268 -0.2251552920534961 1.2128764684838662 133 103 65
-0.3683211531980551 -0.2128811972160189 1.1151123479682770 46 26 27
-0.2536935332870358 0.1410907033984807 0.9641900065952179 229 59 88
0.0096797793408901 -0.2481138375759634 1.4114725185848851 109 101 90
-0.3749149191369243 -0.2571466669997952 1.1540508599654864 207 184 190
-0.3837027507971833 -0.1751493684487154 1.1744770687886177 143 75 100
-0.2394333560835397 -0.0032711905367561 1.2472224806778187 210 190 140
-0.1993412975933528 0.2074221682252373 1.0922622645964146 189 202 185
-0.2499150803341786 0.0505023521972025 1.1899086124631935 164 149 154
-0.2518996827178259 0.0097581127807221 1.1912225222793809 187 199 215
-0.2594631654024694 0.0757683057836756 1.1354585900149967 171 100 134
-0.2599026489865717 0.0862897346000818 1.0708673230301817 254 227 138
-0.0061877548410187 -0.1605649680815489 1.4090989105853009 31 25 3
-0.2662310594046392 0.0790444979585427 1.0867498548228087 233 149 103
-0.2469259337399363 0.1210116616914535 1.0387825396896373 223 93 103
-0.2597839696486871 0.0270568606464821 1.1857567367609101 166 181 200
-0.2195851170815886 0.1840383963127286 1.0046983345295282 201 147 83
-0.3367282423945701 -0.2644789980097939 1.3173974957104519 96 62 50
-0.2257926345537160 0.1791799359777609 1.0036696544837393 243 189 127
-0.2626346381279729 0.0614882912542668 1.0832964316260418 169 130 73
-0.2608976063390016 0.0633565738139920 1.0823254873020536 169 130 73
-0.2424193934853816 0.0983360152071278 1.0423983713117044 227 115 104
-0.2467350196222056 0.1054962582169230 1.0552320567069968 255 189 152
-0.2211928286940543 0.1727641838328717 1.0075443750936552 194 130 84
-0.2399607678483817 0.1682955549271638 0.9716775120127041 199 65 72
-0.2462322041093121 -0.2699561700009484 1.0911031505745330 129 133 110
-0.2654450133238430 0.0704100704923919 1.0860407325410093 255 245 150
-0.2330543000126092 0.1802279763252777 0.9848426264832330 166 47 41
-0.2768122935819097 0.0010028401887037 1.1449722238653870 212 98 108
-0.0590625275009943 -0.2693603595112595 1.1876162621690853 207 212 154
-0.2633554891326924 0.0580756189060118 1.0966607298219047 192 143 102
-0.4046917865005932 -0.3028874530924853 1.0635598275572138 57 40 30
-0.2533136503751052 0.1053745061103700 1.0659563560276442 255 223 156
-0.2328843832965607 0.1751626443227415 0.9866261006219055 219 145 98
-0.2421557235613579 0.1326895955104719 1.0354957685171955 203 110 92
-0.2639404676354321 0.0551640573467157 1.0931090636388912 200 135 113
-0.2458942123514702 0.1204563580348938 1.0482297835190681 255 235 151
-0.2492679812752331 0.1192619982425128 1.0460536469929922 143 84 42
-0.2550489041098200 0.0447041903765120 1.0680885683847587 231 137 135
-0.2657345535998068 0.0160949369972097 1.0943653983362400 182 123 79
-0.2621235677835212 0.0311426300284412 1.0741771367316477 242 129 149
-0.0293185079871795 -0.1813336851988196 1.3743611074523550 100 84 35
-0.0422439061635327 -0.1621213951502164 1.4027076605453788 33 21 0
-0.2469591477171361 -0.2221190656469030 1.2717156880284386 81 35 19
-0.0449715570150916 -0.1575574862383826 1.3890650386496481 106 84 35
-0.2650140695228183 0.0272735938153299 1.0902843147396526 220 126 118
-0.2694928917900199 0.0441884968192202 1.1106787402007292 255 239 170
-0.1880192424006189 -0.1945108514299261 1.3260147579245822 35 0 0
-0.2683283698213217 0.0476476013382399 1.1044838773084313 255 255 171
-0.0259272721958782 -0.1645470950588782 1.3927325185778763 34 22 0
-0.2299298869509518 0.1562676874775659 0.9801793202446586 197 72 80
-0.2742058971059853 -0.0873578211043014 1.2850615102868115 113 40 34
-0.2602516031802569 0.0666639208933536 1.0768778381404052 233 130 133
-0.2789389829029427 -0.0553699436401719 1.2308895882065269 150 105 126
-0.2485445747461845 0.0966302213853893 0.9276738603408243 210 119 150
-0.3798649499232212 -0.1848201522413817 1.1887589918531731 105 56 75
-0.2533288062746475 0.0736626468961194 1.0603827560040908 248 132 145
-0.3721216575898406 -0.3004523600037066 1.1602948124136829 43 47 30
-0.2676705302859338 0.0197139631278087 1.1248399374853995 194 126 123
-0.1773028722410316 -0.2116223266862875 1.3279187241328305 130 111 96
-0.0034239379044559 -0.1774030730844374 1.3955558519047939 101 87 50
-0.2404330666181303 -0.2337649344367028 1.0904613799528313 88 107 85
-0.1795908291941263 -0.2176555224123068 1.3270038428518105 69 36 31
-0.2513226506710758 0.0732839986643587 1.0547288328767650 222 132 123
-0.2537072041026135 -0.2496500680491479 1.1053412490137349 130 139 122
-0.3567509559845746 -0.1691834031406154 1.2104703391110263 125 66 84
-0.0274184195813626 -0.1388763627275643 1.4190493983730481 102 80 39
-0.2794916710256907 -0.0059125194420582 1.1318775330246316 255 240 176
-0.0280070924318432 -0.1394771936692146 1.4165541727382114 45 25 1
-0.2411674929512012 0.0853169450849319 1.0318495529191700 234 125 120
-0.2499040017993593 -0.2599442160939268 1.0863204315198292 193 214 197
-0.1910837361688426 -0.2270915116386573 1.3125394370509789 131 103 91
-0.2670828200356937 0.0277196632905601 1.0894514371750155 255 242 189
-0.2756818676809545 -0.0249584466626658 1.1510803688680562 255 225 128
-0.2563544611986455 0.0449218432213338 1.0652465665962607 255 241 184
-0.2565288010153477 0.0438412868067658 1.0618379225776520 225 121 118
-0.2744634555826863 -0.0274290767323689 1.1506818344247229 174 62 48
-0.2432076218339563 -0.2643347433019535 1.0821062019693239 223 242 220
-0.2758097699281415 -0.0245141684219203 1.1416678416353025 253 234 80
-0.2601632885804360 0.0295519327126943 1.0740223367480315 255 230 188
-0.2794550901961077 -0.0103233325827873 1.1149727301985597 193 105 91
-0.2497073059726347 -0.2761003929803559 1.0866843971810896 71 102 87
-0.4001865223309456 -0.3154048132249003 1.0559800656382301 154 155 173
-0.3965764437142699 -0.3186313312918985 1.1271896389336107 116 129 146
-0.2439261327861864 -0.1533294454068581 1.3078437352968757 69 39 28
-0.2502009771810147 -0.2610722029014831 1.0918191574643499 150 168 142
0.0659127527208460 -0.2619387088445461 1.2637157311617113 201 125 63
-0.2561124968839665 -0.2797573073958644 1.0969636245315644 62 65 56
0.0810554706861037 -0.2596969603516879 1.2358548927132946 232 178 70
-0.2483414875339674 -0.2857230052537027 1.1001527619286473 66 64 49
-0.0282214201271892 -0.2395289076551276 1.1207234305149290 179 200 143
0.0302228177812877 -0.2531393178767324 1.2962536282610446 117 29 25
-0.2683047513224408 0.0460468711891312 1.1016283585853412 202 126 113
-0.2296697928477044 0.1498037999514941 0.9961196976569056 242 205 160
-0.2780168864686037 -0.0143848650055212 1.1405360035767440 228 119 138
-0.2491494011247905 0.1151698063779446 1.0211914182718815 255 243 147
-0.2311606608657088 0.0119343794566013 1.2769248077615061 205 147 127
-0.2641696656760320 0.0518066265458523 1.0913235823396943 255 255 155
-0.2020162190530005 -0.2961470349551726 1.1757450980521547 98 86 48
-0.2693503691140481 0.0189351784513047 1.1291665989034472 255 255 184
-0.2502945138965733 0.0794337396607745 1.0556774925769012 255 252 180
-0.2412420778785984 -0.2436624550813355 1.0960682858397408 59 61 48
-0.2684559901905946 0.0193517739236692 1.1253338886764954 150 46 43
-0.2798348887025001 -0.0024675762095225 1.1434365313977437 255 255 182
-0.2587147332684964 0.0995722795526591 0.8785875941605724 134 118 129
-0.2492692406110873 0.1120183645905143 1.0133477059700804 255 237 162
-0.2966317695973118 0.1439934922133126 0.8020900535001911 221 246 250
-0.2511513405838403 -0.2613916029167250 1.0894637817190380 69 90 73
-0.2518211462948470 -0.2799789404661256 1.0915488457729212 108 125 109
-0.1783015046540986 -0.2925769987622965 1.1953967722989209 167 155 97
-0.2718827617836116 0.1135675092158836 0.8563910897202803 145 129 140
-0.2668388774746400 0.0148310534517700 1.1264069622713122 255 255 190
-0.1927800309846052 -0.0345460760569762 1.3385258129933666 63 50 57
-0.0218914299672468 -0.1303162686811631 1.4263012598021081 49 35 24
-0.2306454567418386 0.2082154265696002 0.9870447270513273 231 190 111
-0.2218666395997595 0.1864455639431474 1.0063416032564352 229 169 106
0.0869372744793283 -0.2622661390138559 1.2398153771981173 206 47 52
-0.2720052878509390 -0.0989046971570982 1.2884207992370411 157 136 107
-0.2332712294731130 0.1980076118891010 0.9919762057031126 204 86 84
-0.2639884713253596 0.1100931669737390 0.8662075641067881 152 135 143
-0.2483408746104539 0.1324913985077188 1.0441810939642673 255 225 173
0.0688964070650099 -0.2700079361378986 1.2317023564563008 171 47 35
-0.2464626621398662 0.0896958045280970 1.0320447574317926 184 97 77
-0.2377958057694801 0.0571910387775088 0.9467082523757286 252 255 255
-0.0216476275388353 -0.2555506911249917 1.1383642291088079 164 186 137
-0.2303430557554207 0.1956110371157948 0.9944307955052253 239 199 114
-0.2586721801658597 0.0513198584387672 1.0717414254442019 254 249 168
-0.2561907101552205 0.0982277379117119 1.0728352628602154 255 213 135
-0.3892817683271367 -0.2918771207276157 1.0538181507125257 64 36 22
-0.2396323276891134 0.0701592337641742 0.9204070714830938 197 206 223
0.0622275334960398 -0.2438043408239506 1.1483052794612230 222 196 147
-0.2450328856859172 0.1175012488653310 1.0501623459913185 209 82 76
-0.2292654911891254 0.1936217520240573 0.8881939534262701 193 92 110
-0.2408220695024978 0.1735864462871267 0.9736072398964335 231 189 87
0.0751906035064428 -0.2646750604558279 1.2492449288072083 167 38 33
-0.2376774961881324 0.0854446431632469 1.0336191431284352 255 248 157
-0.2600114914244990 0.0806621255743695 1.0847345312602943 255 251 156
-0.2775801072340796 -0.0146158070496371 1.1433695279220175 198 94 101
-0.2375672121995914 0.1838196850841294 0.8878244808312216 254 216 205
-0.2346379908229513 0.1023819780855844 1.1659742115904164 156 149 165
-0.0353853121110718 -0.1455894827653063 1.4071349086314520 111 87 39
0.0555552870964601 -0.2731521262222957 1.2507876034788175 182 62 48
-0.2559518601659891 -0.2847498730220805 1.1001424796092127 48 48 38
-0.2764801247880916 -0.0232933209535306 1.1448749660711179 181 34 52
-0.1072246454826932 0.0311821348003103 1.3723742158728958 110 53 42
-0.2505553912678389 0.0530179026776380 1.0544418594325893 255 254 174
-0.2631104791299227 0.0230971315075466 1.0908077057564989 255 255 167
-0.2148299647164276 0.1752230168688972 1.0080152215582074 255 230 137
-0.0300535679188848 -0.2573280383893158 1.1453828609555758 238 255 204
-0.2514339446869084 0.0020206650274568 1.1935337352934239 199 215 231
-0.2484013205997837 -0.1931237553009734 1.2969602974959198 151 130 113
-0.2474080221342590 0.1311951120453055 1.0351211704636458 247 208 151
-0.2623494869661645 0.0233274253458026 1.0869132134233979 200 137 119
-0.2312828550715342 0.1622804830036935 0.9848279264464175 182 99 115
