ply
format ascii 1.0
element vertex 690
property double x
property double y
property double z
property uchar red
property uchar green
property uchar blue
end_header
-0.0403226913752406 -0.2109133119704882 1.0833817694440762 204 216 142
0.0154773186293278 -0.2296093342466277 1.1018856787604132 216 217 147
-0.0855008897171887 -0.1992577984890881 1.0553265101573455 162 141 74
-0.2841240032009210 -0.0711153266720565 1.0231782969932324 193 52 58
0.1184214912806425 -0.1902404333493598 1.0879874084587426 170 139 57
0.0293702862479684 -0.2297776294709761 1.1008006243656390 124 123 75
-0.1177440707994675 -0.1968924692029489 1.0238025380595432 38 23 2
0.1121220955394372 -0.2364084197306874 1.1567400185229841 190 187 116
-0.1020471969081133 -0.1946723784302730 1.0333760931043219 152 131 64
0.0406272463575508 -0.2291107696781219 1.0997847198743200 213 219 149
-0.1179900393186230 -0.1934265785395040 1.0161746967944216 29 21 2
-0.1179900393186230 -0.1934265785395040 1.0161746967944216 29 21 2
-0.1294071045160081 -0.1910234902732126 1.0083712641165270 197 193 120
0.0111584963090368 -0.2177194023130554 1.0845223938647011 217 222 155
-0.1166065783864801 -0.1746915030155733 0.9920831762497077 21 20 0
-0.1054564399150746 -0.1911557548265606 1.0243779007675746 30 26 0
-0.1054564399150746 -0.1911557548265606 1.0243779007675746 30 26 0
-0.1969018596790340 -0.0416566864393914 0.9686089148641704 196 191 187
-0.0720728725566551 -0.1755596441344195 1.0196997275427728 69 62 34
0.0105260631016151 -0.2153334586656378 1.0794243329446862 216 219 148
-0.0553024582994485 -0.1926047346679050 1.0544977495894301 95 94 40
-0.0554304734939638 -0.1926308114222023 1.0544372107273512 95 94 40
-0.1196844866515137 -0.1871933941577768 1.0064657175301355 42 41 0
-0.1196844866515137 -0.1871933941577768 1.0064657175301355 42 41 0
0.0941253400572396 -0.1373596961741327 1.0273632600235370 91 92 97
0.0309917303337518 -0.2186856441183983 1.0828448014103491 217 221 162
0.0311147629664662 -0.2181146238631176 1.0835957500816493 218 216 157
-0.1268921003229213 -0.1845187323358614 1.0002635437442000 206 208 133
-0.1126484913863036 -0.0783676130560880 0.9429847585267919 77 57 69
0.1067837585178441 -0.2121381343973292 1.0935631468196521 205 143 92
-0.1010778162029470 -0.1848648882019600 1.0156808979876992 33 21 0
-0.1011850635570120 -0.1847723203870043 1.0158173705824627 33 21 0
-0.0359021562884349 -0.1957422972042498 1.0527306506559895 202 216 157
0.0348121433448261 -0.2136849340630291 1.0788948116874699 208 210 127
0.0582378734937885 -0.2186551374281764 1.0884228278678307 216 224 164
-0.0940701611720999 -0.1644481635690817 0.9855005535416803 184 186 102
0.0134002467727261 -0.1853842196232054 1.0383576149320961 207 206 139
-0.0652104531147031 -0.0957394072282265 0.9237222912737530 224 232 155
0.0903024325878008 -0.1893648478577689 1.0683656478028336 97 92 50
-0.1673775450089671 -0.1092077690163987 0.9720519752623592 254 255 255
0.0790090752032767 -0.0993577176869447 0.9894623119346894 177 187 197
0.0986795723720864 -0.1816700838061314 1.0671016026305185 92 80 38
0.1962372137628002 -0.0779701210929460 1.0548086637145595 131 91 39
0.0527885996183490 -0.1657357882661076 1.0314554032835006 87 72 33
-0.0804341135798884 -0.1385002862282761 0.9606070974544212 204 185 119
-0.1957411452383916 -0.0545522791178382 0.9709431452139446 103 99 114
-0.0135660523306150 -0.1467696428595859 0.9885241285460458 170 153 81
-0.1901203082927133 -0.0504929581972323 0.9678395191670347 78 79 97
0.0850647492078210 -0.1361074736493456 1.0190426353634867 172 180 183
-0.1495569182752318 -0.0481522804995084 0.9489485420046374 240 248 250
-0.0267979296777578 -0.0971876650400066 0.9393859925324741 192 206 131
-0.2421162090751421 0.0449349661236566 0.9466222733017072 248 255 252
-0.0430390490555300 -0.0919011581185244 0.9283385786083351 180 179 96
-0.1381778492162757 0.0211596492079685 0.9215445495029259 235 249 214
-0.2405801019868968 0.0839587347206362 0.8865034849803821 136 104 107
-0.2550242863520362 -0.2561813863193929 1.1170868124579312 29 29 17
-0.3857122621952243 -0.2918710413706360 1.0618004754307713 165 201 223
-0.3844734082076096 -0.2947475604358038 1.0570025819034818 175 202 219
-0.3213084091741729 -0.3095153549148623 1.0204061629528216 174 96 60
-0.1849872034676893 -0.2641145249250960 1.0993828213352259 152 136 61
-0.1495548864411761 -0.1538068034891651 0.9803849434406036 245 253 202
0.1602296606594776 0.0747128316100396 0.9793505162304339 148 154 168
-0.0532520613678518 0.1098661071107581 0.8847737746571422 93 91 53
-0.0044136460448098 -0.2366941883308686 1.2804771574705101 108 90 40
-0.2637366903824049 -0.0973170245383732 1.1138428771128126 154 47 13
-0.1985730036168328 -0.0354252746211286 0.9687110475502296 131 130 144
0.0254052888114969 -0.2167595478149372 1.0819655303510991 114 109 79
0.0720801944782306 -0.1856788583110559 1.0587096302503907 184 187 120
-0.2449172896653106 0.0808146780773438 0.9077704402113080 107 76 74
-0.3532952325242782 -0.3188146171845930 1.0401053758816541 48 31 37
-0.0577132207458900 0.1599600775283578 0.8867565988079907 119 108 80
0.0067323863562647 -0.2403390519679141 1.2131790191454397 83 62 33
-0.4032795907934216 -0.2820995558466409 1.0450804425902642 20 14 18
-0.3458300847953576 -0.1042668622802955 1.0613846503540467 255 255 250
-0.2132181610738213 -0.0226726864992550 0.9720310218685330 130 119 115
-0.2132181610738213 -0.0226726864992550 0.9720310218685330 130 119 115
-0.4050053955693423 -0.3198199743296157 1.0628551756654425 95 96 116
0.1759469081609007 -0.1098087871137723 1.0657560925626144 46 29 9
0.0400728231383637 -0.2411969945592100 1.1229595045128862 160 150 78
-0.3524032558203990 -0.3231190631430608 1.0422366143382966 153 124 126
-0.1525950596445236 -0.2031910959768369 1.0172811310724794 15 15 0
0.0213935282338847 -0.2367972712142231 1.1114204872945859 222 226 167
0.0384782082405184 -0.2396634884515934 1.1202751362580312 162 153 88
-0.3174894321509712 -0.3239036950353150 1.0163645598894890 74 27 17
-0.1964123453096489 -0.2912479170123134 1.1782145603873626 137 124 79
0.1212581218833294 -0.2425843657560249 1.1740825492722156 162 24 21
-0.2385529735105303 0.0740182480763254 0.9170165185943828 81 49 52
0.0995911068257569 -0.2380522451552167 1.1594567715564839 220 203 133
-0.1384358676799915 -0.2853771716808695 1.2079695729361000 14 3 0
-0.3158787694531153 -0.2999974187747728 1.0221452552846952 61 21 13
0.0527034115191649 -0.2366391863385529 1.1254378087662200 151 134 65
-0.0554941671726586 -0.0837208635544581 0.9154230759164635 191 199 142
-0.1229198195945797 -0.2841575113759211 1.2185113613575387 90 75 52
-0.1831664681210034 -0.2854976031253176 1.1544953155455129 103 88 45
-0.1192954456357321 -0.2025660933328713 1.0321242075376260 149 130 71
-0.1192954456357321 -0.2025660933328713 1.0321242075376260 149 130 71
-0.2483813516377638 -0.2733364902751597 1.1054185777720871 96 91 69
-0.1294359440312603 -0.2017995505750181 1.0238961235064576 159 150 91
-0.0999241143151357 -0.2800629877812154 1.2315596108683375 110 94 45
-0.2433363285887791 0.0828231134348458 0.9015954896710012 133 104 100
-0.2584003293483672 -0.2556952914571805 1.1149293566390570 88 97 68
-0.1506681411176432 -0.2866344346996271 1.1679242229109228 16 9 3
-0.2575227236551896 -0.2537587347187419 1.1168770050806682 114 118 91
-0.1483789816907203 -0.2853251234717566 1.1696298458443415 100 93 51
-0.1656438190715129 -0.2840177504609405 1.1524808722832933 139 122 66
0.1632885374252179 -0.0719743492404461 1.0088537322766840 134 134 134
-0.1421115330803287 0.0456260609692339 0.9153382824731318 92 65 56
-0.0556144172637666 -0.2006107167613830 1.0702095847667650 213 214 146
-0.0978179858830399 0.0012478974826326 0.9100338300709225 251 255 255
0.0272333154706160 -0.2295010904204836 1.0994715460859781 205 220 153
-0.1328294688365004 -0.2741199822565136 1.1490134253567805 175 155 84
-0.1123190823213178 -0.1966937437216291 1.0291847835894854 145 131 68
-0.1577439367270466 -0.2727572870835401 1.1346195262185517 188 172 97
-0.1535454973691769 -0.2712340809465711 1.1343766285746681 179 167 107
-0.1156059895384461 0.0608256803822227 0.9055901776936479 64 55 26
-0.1621021522333207 -0.2656813000736902 1.1202672828063565 198 193 127
-0.1552830078447304 -0.2655358551136964 1.1213055662017881 40 35 5
-0.1554555593784115 -0.2656092061079052 1.1213249187020855 40 35 5
0.1371688290750581 -0.2314562765092370 1.1637113911385324 189 101 53
0.0349451996027095 -0.2253440196233755 1.0937301941658066 211 213 148
-0.1744550735652277 -0.2604751497523453 1.1056376949321585 63 49 10
0.0263177641643406 -0.2234124299865885 1.0872866402023798 70 67 34
-0.1714862591749316 -0.2600011961077635 1.1077210670059565 52 33 0
-0.1714862591749316 -0.2600011961077635 1.1077210670059565 52 33 0
-0.2242280217538994 0.0757824322879206 0.8298416903722142 46 39 46
-0.0187921807142433 -0.2067418047716992 1.0710475122172665 208 228 165
-0.1634434980076889 -0.2570190368812489 1.1080424573795775 29 25 0
-0.1635120459882808 -0.2575982525684747 1.1077915607701421 29 25 0
0.2182880871478109 -0.0189275201111427 1.0250070149045003 135 138 145
-0.1386489597506344 -0.2615820311373679 1.1227822425280105 174 180 108
-0.2442984604553635 -0.2153322083584545 1.0815880941872504 59 58 27
-0.1890939071175698 -0.2565312716534628 1.0813766434901277 14 0 0
0.1002040186026796 -0.0043936579210007 0.9597413454927659 159 168 167
-0.1572715231202634 -0.2529809254729714 1.1028886282402472 183 181 98
-0.1482635920861859 -0.2537528034881112 1.1059683079742768 189 184 103
-0.1495684972434784 -0.2530978028951077 1.1039394836610175 195 190 109
-0.2715321258718733 0.1151794623722158 0.8230599368972792 48 22 31
-0.1717035603956371 -0.2504921673947384 1.0876844240075598 139 118 61
-0.1587876443674118 -0.2499256182878168 1.0960416484031097 36 23 0
-0.1588395549344184 -0.2501227892056826 1.0958098895036390 36 23 0
-0.0473260370087767 0.0440369166151598 0.8887899011369256 244 254 181
-0.1456204368359340 -0.2502406179000546 1.1022714935843603 34 27 0
-0.1336946535985716 -0.2523860417866867 1.1097725047444558 195 189 113
-0.1519756484166836 -0.1729133012576149 0.9907630210221124 116 119 72
0.1448508372219237 -0.2211084734822254 1.1522747095477741 163 31 18
-0.1413143471445877 -0.2233650428442390 1.0564500124996474 158 141 71
-0.1689269091575973 -0.2459839744028463 1.0797601973213549 131 117 56
-0.1323575801724970 -0.2489766113949676 1.1050457200557593 166 179 123
0.0156312551195543 0.0603041145211718 0.9098750118905095 111 100 80
0.0158280556845067 0.0630592588200502 0.9085831545144289 113 102 84
-0.1202753324430141 -0.1776936250101331 0.9957669890656368 222 224 149
0.1229076337636804 -0.2205645072776924 1.1251071090441289 180 132 68
-0.2414328875258121 -0.0546507972065877 1.0252788824191732 190 133 30
0.0815149406610359 -0.2317890690793858 1.1727197585003060 89 22 3
-0.1125743076396633 -0.2458396542892899 1.1078913078026178 211 211 139
0.0819834506327212 -0.2610222567645027 1.2456278846988353 173 19 19
0.0419145188361522 -0.2384889519963973 1.2279700758332632 152 109 58
-0.2382656739976163 -0.0697048068988868 1.0039503974234658 183 134 5
0.1178735547139203 -0.2192890034995578 1.1102564957913539 183 146 76
-0.1313796173148794 -0.2372981550046304 1.0899478844934616 9 12 0
-0.1649820774306724 -0.2361941825912685 1.0640334696248506 58 42 8
-0.1651241852212905 -0.2358628076360655 1.0643105844367826 27 19 0
-0.0060948382342127 -0.2596816247574643 1.1567069856475665 222 227 160
-0.1586377076737999 -0.2329032237622303 1.0616192569952834 29 11 0
0.1180521012889193 -0.2112248558089693 1.1054288361875475 181 137 72
-0.0175673763661795 -0.2085406380062262 1.0747667734150650 207 229 154
-0.0342463203387650 -0.1781652779100420 1.0304781233720564 238 242 181
-0.0234977673911859 -0.1805237449511650 1.0325662583420341 40 44 29
-0.1190120513030210 -0.2300905857653189 1.0857635078586059 29 21 0
-0.1657859396069670 -0.2308555493844625 1.0485558069758911 37 24 8
-0.0447447077005339 -0.1709223429364530 1.0229110182831473 229 234 154
-0.1578955152192955 -0.2287664651337103 1.0535161674221620 129 114 55
0.0677611664964676 -0.2318137253191214 1.1920406212780927 104 69 39
-0.0211256980848090 -0.1982270132243817 1.0557161542371440 208 225 154
-0.2271629359852614 -0.1638866228364838 1.0240129077396227 255 255 255
-0.1596965124109785 -0.2214597141860092 1.0371060431053729 33 32 11
-0.1574879157141259 -0.2213887911178825 1.0387161554010449 178 171 91
0.1195602060102944 -0.1965502721701560 1.0935792420937949 185 134 71
-0.2230137570268778 -0.1882131272849845 1.0229797912458682 241 255 255
0.0516509428754931 -0.2375385825168532 1.1433109831682500 135 103 42
-0.0095047633733485 -0.1711595480596174 1.0185497295234072 222 222 172
-0.0937954699798415 -0.2113884083880493 1.0692808132154477 66 49 6
-0.0937954699798415 -0.2113884083880493 1.0692808132154477 66 49 6
-0.0031190196588084 -0.1914646532742979 1.0455236226706168 207 228 163
0.0450064794736302 -0.2423183772303049 1.1341927994688217 95 72 41
0.0142359869496993 -0.1711533555575212 1.0233697164755295 188 196 137
0.0142359869496993 -0.1711533555575212 1.0233697164755295 188 196 137
0.0174232811697638 -0.1958631795235538 1.0528727779073883 208 209 139
0.1523345155827591 -0.1760607517797478 1.1085479509404386 165 136 68
0.0617032823462499 -0.1762527960738260 1.0463177869170075 57 46 16
-0.1157204344885076 -0.2014943135859980 1.0323326041909660 135 127 62
-0.0920765261388083 -0.1340192186518687 0.9595531650991938 202 197 133
-0.2289089384496474 -0.0428208652676173 0.9898487131345378 197 172 46
-0.2260841083404756 -0.0395716340653365 0.9938487959366670 101 58 42
-0.1730205676654899 -0.0418783107628087 0.9594998137338056 206 215 220
-0.2358521854108115 0.0336858240517995 0.9632903353200027 255 124 155
-0.1314369433001131 -0.0564653503268331 0.9414599012925868 254 254 255
-0.0563331950110625 -0.0340767423239476 0.8932235968137816 204 211 133
0.1278459844632669 -0.1821776148020117 1.0882675272350197 182 142 73
-0.2268615228150166 -0.0075900664649505 0.9783213959692877 249 245 184
0.1886437906507115 -0.1270658321321111 1.0943328751183317 55 29 16
-0.2590201487467468 0.0901787540670198 0.8984811954286349 46 56 91
-0.3888622126696560 -0.2773580321267732 1.0606270408502283 53 56 71
-0.2006064751764408 -0.2716129314053508 1.1037441870564837 156 132 70
-0.2751645093026169 -0.0523235851291880 1.0658080669062506 186 144 34
-0.2668556386128321 0.1059128007202621 0.8686253194757111 121 101 102
-0.0630815468754677 -0.0212810481231399 0.8845528850478792 172 185 106
-0.0489929524385323 -0.0244418075635555 0.8950167272899617 201 205 110
-0.0303882704197059 -0.0273417670041841 0.8990958503931923 186 192 132
-0.3891211054417623 -0.2808287503237544 1.0602366290804162 61 55 67
0.1309342025969749 -0.1984570404713875 1.1071996351545665 171 139 64
-0.0238732414743850 -0.2240596749501249 1.1120685161200226 77 80 27
-0.2030027659674034 -0.0668422943153347 1.0225864349517197 110 81 85
-0.1721505360823158 -0.1004233969310012 0.9717359041027356 221 239 223
-0.2217871271166846 -0.0496802669079931 0.9837685704576684 200 193 200
-0.1405604857074572 -0.0528250346018315 0.9466043965345542 227 248 233
-0.1614214444966578 0.0455503407135949 0.8152522102197965 126 92 90
0.2865361341838332 0.0810639826706395 1.0358120886256728 80 49 44
-0.3483877972941692 -0.3241110140036443 1.0556967179260783 57 34 44
-0.2258987326354567 -0.2148498421370847 1.0338391224842987 226 249 233
0.0822418956226521 -0.1519201299025636 1.0325621996988112 185 192 198
-0.1394989230922893 -0.1955187327883585 1.0099235038995853 160 167 100
-0.2564928966420431 0.1406999829581350 0.7560409247797945 114 78 78
-0.4097658767470919 -0.2607860372400798 1.0540307831734403 154 119 123
-0.0592349366694507 -0.1324019994877792 0.9574668852559507 204 211 141
-0.1690971562862998 -0.0781824231208899 0.9693928438121266 235 246 229
-0.1694453651342955 -0.2545595745624045 1.0995013032777465 146 134 86
-0.2266683700943468 -0.2959367468675413 1.1481275901990595 102 85 39
0.0887623778353417 -0.1789508726727676 1.0587016478592106 169 166 95
-0.1673341985090984 -0.2517892986541450 1.0935668162221153 155 126 58
-0.0164198505919860 -0.1577137738376911 1.0047007450998011 229 236 168
0.0074402961423379 -0.2430788268365930 1.2298581927812351 95 29 7
-0.1656800115514266 -0.2868559307032815 1.1916114413448922 13 9 0
-0.2541154566496570 -0.2066328010512632 1.0657876999600420 236 248 226
0.0819433005619614 -0.1706988542474595 1.0500259577114057 157 156 99
-0.2106639378037151 -0.0390241209498336 0.9739257928446597 210 217 225
-0.1896277852450953 -0.2463799515143210 1.0774961473008942 144 137 85
-0.0119793544037743 -0.1855719052040173 1.0375263647356239 217 224 154
0.0036308711743818 -0.1922067748210080 1.0429840816271145 54 54 26
0.0209188578021454 -0.1516787416373165 1.0035077862370265 133 107 58
-0.2426116761973359 0.0476478412071330 0.9529608900901027 176 40 62
-0.1924140742456390 -0.2831944376796009 1.1362162594305043 98 88 29
-0.1679914019671545 -0.2846479073287546 1.1510619942241478 114 109 43
0.1427136265991008 -0.2006688996272129 1.1220370374517310 115 102 67
0.1366852474196813 -0.1354823006838595 1.0514972382257624 157 164 172
-0.0458654912262755 -0.2501737350714300 1.1550889335014813 166 179 126
-0.2418880784563243 -0.2785568458138407 1.0868941813580817 198 204 166
-0.1557095534455166 -0.2390241298384539 1.0802803927862534 22 9 0
-0.0248997638754443 -0.0553297197834123 0.9909992423568954 139 124 59
-0.1427070261912038 -0.0027095130747665 0.9513202430375163 31 20 18
0.0466569356702416 -0.2383309908097730 1.2263449969931584 71 17 0
0.0466497717622160 -0.2384041862397368 1.2267134314043564 71 17 0
-0.2435512984709300 -0.2757436904924560 1.0871662791892049 72 73 39
-0.0619624525679545 -0.1116135565174929 0.9380347331200114 201 199 114
-0.1700755907811020 -0.2706362741707249 1.1238359180686106 119 130 62
-0.0365567870615256 -0.1128841634115490 0.9477759400062823 203 206 135
-0.0746140791913593 -0.2808388204995244 1.2130716596436399 58 42 16
-0.1377742481172570 -0.2726955610047342 1.1406251108632446 132 137 70
0.0188230796180709 -0.2351284113127050 1.2049253585890887 34 17 7
-0.0049091842125063 -0.2626167482990476 1.1649655706241993 29 18 0
-0.0474633676883063 -0.2749258115724661 1.1968851948516990 139 113 52
-0.0578661518330543 -0.1049603144070306 0.9349083747347117 88 75 31
-0.0578661518330543 -0.1049603144070306 0.9349083747347117 88 75 31
0.0866569504102822 -0.2611983651559812 1.2326283651632963 192 42 25
-0.1627673044918960 -0.2366101040132393 1.0697575700885886 20 9 5
-0.2465707847521852 -0.2583234757698186 1.0854677393982795 110 108 57
-0.2898716770622914 -0.1041238668839841 1.0814967995108877 233 53 82
-0.0963245387720314 -0.3302266053538397 1.1322922573804193 96 84 36
-0.2913361732605770 -0.0990096247725529 1.0829628962881543 104 1 5
-0.1324362330646084 -0.2360677482630518 1.0877739486318971 161 158 81
-0.0181034948790351 -0.2553386235625361 1.1543106246318466 238 242 183
-0.1217661713921107 0.0211358950913765 0.9354224802472407 137 136 72
-0.0377376230580216 -0.2450703037630315 1.1443762536793107 24 28 5
-0.1340820138942160 -0.2733292853063558 1.1449838629955276 18 12 0
0.0711538550043903 -0.0870585519200443 0.9818339019376737 180 191 195
-0.1463831266826799 -0.2415100765213348 1.0908825001193612 185 170 89
-0.1434140214414459 -0.2698414047647876 1.1343485845017047 25 26 10
-0.1434140214414459 -0.2698414047647876 1.1343485845017047 25 26 10
0.0106693683024436 -0.2377204884934799 1.2056752645634199 110 82 32
-0.1938010294664986 -0.2299719133198068 1.0396361559575398 41 34 5
-0.3637221993843174 -0.1805355562384042 1.0410019017347136 153 128 123
-0.0334593321271484 -0.0721992505414124 0.9179049675707218 202 204 121
0.0912343083386888 -0.2572184769464502 1.2193182934028599 192 29 30
-0.1074036459614176 -0.0336007946427554 0.8955083916439973 238 252 227
-0.0313228501000620 -0.1578723852901681 1.0046749101314696 201 223 151
-0.2973488643870092 -0.1004213537397463 1.0772338919051687 104 0 6
-0.1144331189099917 0.0259007366618408 0.9141723495684551 147 175 163
-0.0549180733515723 -0.2718424065091856 1.1910737645470584 186 184 125
0.0294564767284913 -0.1696853644912430 1.0269389527330977 84 83 52
-0.1057144123082535 -0.2382599917432589 1.0999464963098442 174 186 114
-0.1433582827095274 -0.2303646646944329 1.0673479676203392 24 12 0
-0.1433582827095274 -0.2303646646944329 1.0673479676203392 24 12 0
0.0937427453971064 -0.1739409975504209 1.0574476855769763 45 29 6
-0.0569157140373378 -0.1945638888042820 1.1544938745385984 178 159 82
-0.1564038461208007 -0.2614238651863750 1.1142039255494478 6 8 0
-0.0571825325552996 -0.0422905148294527 0.8951564422314894 209 213 126
-0.1843802929691961 -0.2578077977864061 1.0904561366140624 51 35 2
-0.1829776973930972 -0.2574520941988495 1.0918440548454851 117 100 46
0.0492848496357031 -0.2543436638328240 1.2673551448058100 107 94 49
-0.0601256543574736 -0.2646987332844241 1.1750228692220903 28 32 0
-0.1673612944306967 -0.2555602307403688 1.1014989520334235 114 112 63
-0.0971371541472093 -0.0890388463249448 0.9339618740107527 242 249 255
-0.0952348426853275 -0.2186886654925869 1.0797715243173152 159 165 93
-0.1380610060742336 -0.0163775802149315 0.9416863335132534 221 245 229
0.1657288558133185 -0.1140752824376438 1.0614137685851177 113 84 42
-0.1225258398789422 -0.2219258621070490 1.0686977040930405 17 11 0
-0.1225258398789422 -0.2219258621070490 1.0686977040930405 17 11 0
-0.1068241345469871 -0.2198087014100966 1.0756173877031883 28 15 6
-0.0302452884235610 -0.2628758958761258 1.1673792214869738 221 230 165
0.0056829460678055 -0.2346355799240481 1.1134369885862292 228 232 171
0.2266922984582154 -0.0071328629543886 1.0228852957218466 181 191 192
0.0819158078387931 -0.2397553404491420 1.1852826311261597 108 72 22
-0.0320482515740574 -0.2593457102231451 1.1637527510416472 230 240 177
-0.1181112276986852 -0.2173933978653522 1.0622641970923525 21 9 0
-0.1181112276986852 -0.2173933978653522 1.0622641970923525 21 9 0
-0.0029531763789107 -0.2380696179746840 1.1245064077699540 243 251 191
0.1424542120484915 0.0154792055685785 0.9779486727824228 196 207 209
-0.1073664303847698 -0.2151329804964300 1.0644906545007129 25 12 0
-0.1073664303847698 -0.2151329804964300 1.0644906545007129 25 12 0
-0.0540567114116625 -0.2046185873632885 1.0755899963309572 186 197 118
-0.0477330164920749 -0.2053747590491006 1.0753053404563029 213 217 141
-0.1044127277656244 -0.2102297507802196 1.0588644824637827 19 5 0
-0.0406535381774494 0.0710975396985794 0.8834012095776754 164 171 103
-0.0955487283567295 -0.2089521939981401 1.0665560337252633 23 12 6
-0.0709121930211043 -0.2103539886983272 1.0815610332133458 178 178 114
0.0022058394406479 -0.2312352533480029 1.1158625386735557 235 243 183
-0.1531157349637158 -0.1944989769959326 1.0078819095905664 220 226 162
0.0671994446905152 -0.2286168839973542 1.1290369940531402 91 70 41
-0.1549534840243002 -0.1877496719762045 1.0024032398997458 204 227 155
0.0048773496269820 -0.2595253797124507 1.1614223532153383 138 110 45
-0.2281683736433268 -0.2113965782543372 1.0324741566280378 249 255 240
-0.0087948135363897 -0.0349526778175405 0.9127538622889079 170 172 109
-0.0175500807268887 -0.2087565326339944 1.0746927853963399 216 225 160
0.0460434316866223 -0.2305865184620877 1.2039760147931138 106 22 12
-0.0313236905384682 -0.2416624389829324 1.1384004078127161 142 150 90
0.0056427409582297 -0.2300953203184195 1.1050772030028047 230 238 178
-0.2188618109663803 -0.2099654274434921 1.0283103759550152 124 137 130
-0.2163986618360320 -0.2099887723044276 1.0288536501030119 128 138 127
-0.0332529953510019 -0.0154707907239365 0.8954144269351663 200 196 109
-0.1306098064536541 -0.1888455740508740 1.0043244163512524 197 203 131
-0.1485207391816138 -0.2278375718450119 1.0578384012012634 96 99 52
-0.0102461056240976 -0.2012842769542261 1.0588471726237698 220 225 159
-0.0172730188202824 -0.1986466362284127 1.0535922218017995 209 231 156
0.0062756156828855 -0.2483797514845163 1.1356790284433256 228 237 172
-0.0869245519368525 -0.1969225596842685 1.0498063803319926 141 126 67
-0.0341366920809168 -0.1898459634431371 1.0451287654093244 225 231 169
-0.1116458181440697 -0.1976393854925583 1.0305715520148786 26 15 9
-0.1116458181440697 -0.1976393854925583 1.0305715520148786 26 15 9
0.0007635453375304 -0.1988580441638457 1.0548515644012710 84 84 46
-0.2375818932107616 -0.0568577519297093 1.0388281805773061 132 52 45
0.1128448558985878 -0.2503356481963367 1.1924835720543663 211 168 38
0.0955093679791399 -0.2263044893887717 1.1409760169180743 102 26 3
-0.2474012417921233 0.0730359025343945 1.0537184051726529 220 64 85
0.0558974627375135 -0.2306791360169973 1.1046564040178344 47 34 0
-0.0388669871946806 -0.1705544845786405 1.0205523681977562 225 228 159
-0.0341586287151219 -0.1720592175173437 1.0221370915887324 216 233 153
0.0992475346401989 -0.2028272916459198 1.0849875178160797 199 192 112
0.1060333015398906 -0.2269649061950680 1.1318166510033856 229 193 145
-0.0990951682179160 -0.1873448418730294 1.0224838461097319 35 22 6
-0.0990951682179160 -0.1873448418730294 1.0224838461097319 35 22 6
-0.0344125995227087 -0.2107591711287855 1.0859786832888472 223 226 159
-0.0041020541333557 -0.1693011458862667 1.0164354014890691 144 150 90
-0.0751093183855553 -0.1832217102281571 1.0353198468190494 34 22 0
0.0582586749286481 -0.1764768885278238 1.0447212948656484 184 193 130
0.0582148248202042 -0.1769564232308655 1.0445607474485805 195 188 107
-0.2013912520907088 0.0094187410044846 0.9767512615296280 80 66 79
0.1288928505021788 -0.2240894541477612 1.1361659212896382 157 130 63
-0.1829224314936520 -0.0351478498358110 0.9613833629046353 115 112 121
-0.0481521746716638 -0.1444038889159471 0.9721849569496857 116 92 48
0.0951395685588019 -0.2200380868396981 1.1150537088560970 150 84 50
-0.0210551098396360 -0.2121946477670446 1.0841234080826267 220 231 165
0.0319443598421978 -0.2136115261137003 1.0751568538653991 211 213 130
-0.0798859887286207 -0.1793667445039359 1.0235912138974785 36 18 0
0.1322829811256912 -0.2201589683862566 1.1324935957416464 156 131 75
0.1317321723919490 -0.2180457021747606 1.1317728589910347 49 14 0
0.1317321723919490 -0.2180457021747606 1.1317728589910347 49 14 0
-0.0388758403733246 -0.1858753395975826 1.0411180873801280 232 238 164
-0.1545986889499222 -0.2270841422949332 1.0509238694643095 147 136 70
-0.0698314368947119 -0.1756084184729131 1.0249288444129103 29 21 18
-0.1561605356803933 -0.1840461826107394 0.9999761450261520 233 246 192
0.0149809250991462 -0.2023926184424890 1.0609016609156343 40 34 10
0.0149327708202926 -0.2025044679004362 1.0608213724281128 40 34 10
-0.0737719988441695 -0.0857662176457858 0.9228798702622489 247 253 205
-0.0400719618144326 -0.1829199954896561 1.0374518333782010 245 244 177
0.1061018113491388 -0.2185342935479108 1.1077512330850021 128 36 11
-0.0674447957801041 -0.1745213382948768 1.0231746490324867 38 24 0
0.0790112492129908 -0.2155345380128093 1.0879397302438429 220 226 156
0.1321456036717042 -0.2120849905999950 1.1242648244294038 176 144 71
-0.0161199338589495 -0.2071055818832811 1.0686800989431648 210 222 158
-0.0280871266580252 -0.1823007946113333 1.0355917934397390 60 65 35
-0.0047238589381332 -0.1888765539441876 1.0426935075352408 214 224 164
-0.1746886362688674 -0.1181705470181087 0.9777983752996980 137 154 136
0.0147159406117129 -0.1942008254842581 1.0493399369555294 217 219 135
0.1048226059430310 -0.2132060980715734 1.0945322710304390 110 30 0
-0.0267205608827268 -0.1983966280146575 1.0559670619714956 198 220 147
-0.2813593968656332 0.1206379999633963 0.8385028021054722 80 66 66
0.0502875898096070 -0.2205869634695998 1.0908144981528065 196 208 146
0.0551055631070013 -0.2002495327711671 1.0660227455991766 53 43 16
0.0550960169325703 -0.2002338808021917 1.0661134250191451 53 43 16
-0.0242942666844663 -0.0257336955880739 0.9019355400479740 189 189 99
-0.0359809756848287 -0.1919006323661589 1.0481210699503869 224 227 174
0.0674844368337219 -0.1977369318783357 1.0682974554489924 205 206 138
-0.0676066574473257 0.0992421352146293 0.8931529560203648 5 8 13
0.5003588515165223 3.2667886292235844 3.3537597350625510 115 84 30
0.0183316886689595 -0.1764216265114989 1.0306008187472846 52 52 26
-0.0426620258433366 -0.2722936585227924 1.1945470197256958 44 36 17
0.0442625237608438 -0.1797334103787451 1.0424409080083674 183 191 131
-0.1645852252043506 -0.0441554473189038 0.9639115625221919 123 111 121
-0.1506235999543956 -0.2373563407685335 1.0752993222473655 146 136 67
-0.0468546199970053 -0.2715619122074088 1.2059432831818220 17 8 3
-0.1155787766433211 0.0226493505494892 0.9199939680507980 239 255 245
0.0889420564009282 -0.2518942520043650 1.2110288159188156 120 37 23
0.0206536964740007 -0.2295631490046720 1.1006566316350528 39 56 22
-0.0062102042681521 -0.2177664329516829 1.0885452208184723 225 232 165
-0.0777532906289571 -0.1865891812770175 1.0395817709120849 34 21 5
0.0202682163753967 -0.2256522987283294 1.0940209107340877 150 167 113
0.0437619613856065 -0.1979976753835563 1.0620620551041087 70 66 28
0.0212134314542454 -0.1840556837018983 1.0396773667703607 195 201 165
-0.0819111329523703 -0.1736493866471692 1.0111108240392799 129 113 54
-0.0821476966521359 -0.1728280641927660 1.0115912111971521 129 113 54
-0.1701268495715327 -0.0497304856333852 0.9559901263589221 154 162 173
-0.0249135234036529 -0.0707486182719207 0.9218668899772949 39 26 36
-0.3721358248631740 -0.2765001676333196 1.0463525969424357 215 231 205
-0.1449691554270935 -0.0549015390511861 0.9558502781750957 243 255 239
-0.1448996532640562 -0.2314879541021929 1.0707210345275020 152 134 68
-0.0700375072668301 -0.2767008265730259 1.2126213148370573 58 48 23
-0.1010595497963614 -0.2454690328998768 1.1097718327164909 175 183 110
-0.3853417473294933 -0.2744554056040290 1.0574394313227700 39 54 75
-0.0206579140084832 -0.2265022693860229 1.2630585960384086 35 16 0
-0.0211516826232458 -0.2284531929939687 1.2622644014884337 35 16 0
-0.0341084662802979 -0.2026637750876497 1.0628232610290000 206 226 163
-0.1584909417043027 -0.2873401871071912 1.1921552109232443 106 88 48
-0.2021262420483133 -0.2858507198952338 1.1366481384355347 120 103 57
-0.1691243818204143 -0.2584547733139992 1.1071674000282383 119 118 61
-0.2088140987353689 -0.2798258122425432 1.1205595677950309 123 113 54
-0.1625696602121893 -0.2800834798163715 1.1500941703750549 157 141 82
-0.1625696602121893 -0.2800834798163715 1.1500941703750549 157 141 82
-0.1551065575031436 -0.0381123788208958 0.9479659675400036 213 227 228
-0.0388632904407689 -0.1812523793259286 1.0356168794215839 238 240 177
0.0288046075524092 -0.2382642924302438 1.2157859381408314 96 20 6
-0.1477586915555568 -0.2333774654180467 1.0731291531526737 157 139 75
0.0992805734304989 -0.2595337490547324 1.2169958384808952 189 50 27
0.0070078242714714 -0.2421224558655551 1.2269135577835264 116 81 41
-0.0859068685559908 -0.0119898827839649 0.8929664068788010 85 72 79
0.0302610379564658 -0.2490853794813692 1.1528028064071276 145 113 54
-0.2295597795527938 -0.1745069239461069 1.0272596374801803 127 142 135
0.0961867243681111 -0.0343897721387237 0.9703011191298750 176 190 199
0.0956703632727683 -0.0354989038211348 0.9697985444591108 176 190 199
-0.2289988068675019 0.0852516767941493 0.8172242952736866 33 24 27
-0.2160737509406890 -0.1485837483440332 1.0132269808783330 251 255 255
-0.0162827945960029 -0.0147282448207821 0.9037889293265555 184 173 94
0.0326606336764450 -0.2440502778243900 1.1282552835767845 152 134 70
0.0326606336764450 -0.2440502778243900 1.1282552835767845 152 134 70
0.0091968580042711 0.0160262047281629 0.9126721234855506 127 116 62
-0.2247454694362742 0.0653066794659486 0.8894365773869251 79 44 50
0.1047780279784483 0.0196605234336803 0.9543704697182586 170 174 177
-0.1313875111798480 -0.2029006149750803 1.0264015111563953 158 152 90
0.2185955829296548 0.0065862727094832 1.0113331820468998 183 193 195
0.2215845663387122 0.0353167963929134 1.0077310572771705 185 196 202
0.0875130778467459 -0.2256977321306340 1.1484668760748917 98 20 7
-0.0416983076476878 -0.0172585723627885 0.8926444895693249 196 196 110
-0.2488041223578720 0.1243405716979880 1.0569233724397804 255 247 147
0.3133424332496663 0.0623671807815684 1.0432327426720676 50 41 36
-0.2242928234916006 -0.1553319208750983 1.0230970354226476 247 255 255
-0.1245077289082139 -0.2122224345081631 1.0471565658588720 151 130 65
0.0961436705511856 -0.2175460740408976 1.1111734505017934 137 88 47
-0.1958591020478606 -0.0548175309040891 0.9709285769004895 77 60 79
-0.2450668050701006 0.0561277891636695 0.9882356129208579 239 240 222
-0.2499088387609323 0.0921465777323650 0.8741941671357276 94 74 85
-0.0537605492548234 -0.0196749593051234 0.8895374498651670 203 205 121
-0.0487787926348787 0.1199358703125462 0.8817491335332357 12 9 2
-0.0528447035945581 0.1165601380729400 0.8830401194276928 86 88 51
-0.1286656186332671 -0.2066817190813626 1.0319004387880617 143 132 66
-0.1607855747805669 -0.2674249843612561 1.1211926162286820 160 165 99
-0.2381949623003946 -0.2451097725629576 1.0599486618931970 240 255 239
-0.2319465851266411 -0.1956335319851026 1.0316947915978538 244 255 251
-0.2520910508095298 -0.1252815401191815 1.0838186561652556 243 238 206
0.1359157278800969 -0.1993307578101843 1.1132945446089986 170 136 64
-0.1953850936929518 -0.1192628935382829 0.9899815977175430 252 254 249
0.0820939737532051 -0.1818520817858123 1.0601106057987755 171 183 119
-0.1452780601996613 -0.0454836607588408 0.9448863663485673 244 255 254
-0.0598896236148602 -0.0904117290653089 0.9214574623771319 226 247 170
0.0203417452996505 -0.1484582844436177 0.9995940077188923 174 195 212
-0.2071359383002010 0.0665054377506500 0.8070259461580247 179 92 109
-0.2570528186885641 0.0968846576937553 0.9258304241268438 255 254 255
-0.2738033710580562 0.1200928198026028 0.8245098458587224 92 72 71
-0.1525970020630600 -0.0737106328685660 0.9661277559211874 231 246 227
0.1791550562007544 -0.0167299366580111 1.0070816033486536 36 42 42
-0.1882205205722726 -0.0963235287037566 0.9836056560337983 246 255 249
-0.2003403022781771 -0.2824269985288259 1.1334007497955354 126 110 48
-0.3871249697815047 -0.2889827300881665 1.0650700235418071 129 101 100
-0.2940828058797847 0.1428755741192932 0.8065566491504561 191 179 179
0.0915572432100982 -0.0400158504106698 0.9671110936867329 165 185 196
-0.2941142100703008 0.1436608684744433 0.8035369699965702 108 109 114
-0.1573187681057327 -0.1536840792496587 0.9815136764111965 117 118 74
-0.1970854737941387 -0.2742061783296249 1.1188550316928012 32 17 0
-0.1970988197650440 -0.2740153778726975 1.1188648517135296 32 17 0
-0.0751530748118645 -0.2809091343490634 1.2120902352349947 49 32 12
-0.2574347117976898 -0.2160008294254447 1.0828152157078188 124 131 98
-0.2076968941556972 -0.2914457199132483 1.1483884734086560 54 34 9
-0.1879426390866530 -0.2925315642430519 1.1649298876981753 103 84 52
-0.1380405136229063 -0.2782335157974802 1.1492588709118365 19 12 2
-0.2535815664224723 -0.2138604935755905 1.0762290269721817 65 78 69
-0.2213798920515889 0.1780268094250716 1.0047266308173344 232 203 127
-0.1942027243440164 -0.0462502495766914 0.9711862417077844 204 213 228
-0.1784967985235553 -0.2843575607650917 1.1458693148248558 162 139 71
-0.2014793851308157 -0.0046779415744243 0.9728242756635402 112 108 122
-0.2788424311954781 0.0001817158230850 1.1765376105218903 242 53 75
-0.2538005537052588 -0.0499816232805019 1.2943530199314026 114 99 104
-0.1986681035678160 -0.2779220002715653 1.1253546575969102 20 11 0
-0.1986681035678160 -0.2779220002715653 1.1253546575969102 20 11 0
-0.2039652398358461 -0.2769194017932147 1.1155672087854067 108 95 50
-0.1439140462885976 -0.1418707592722300 0.9715357498712138 76 83 52
-0.2335428822144788 0.1658013677624779 0.9822715586480570 252 208 163
-0.1750438407750755 -0.2630504173981152 1.1100027316982604 171 151 88
-0.2352813564568539 -0.2461661755258255 1.0587976054865753 218 235 216
-0.2693365531929646 0.0449549268852149 1.1109583820511721 255 254 181
-0.2445547891352974 -0.2017377606779149 1.0413800033538674 247 255 255
-0.2297152065957240 -0.2457343892721490 1.0552981378689996 75 86 78
-0.2282276016817860 -0.2458477627319272 1.0543073504706415 233 246 228
-0.2685639265207260 0.0272042774078299 1.1181729808490950 113 58 17
-0.2382785030353447 -0.2266045584752743 1.0515542984900572 233 252 246
-0.2637541122683671 -0.1257938462174340 1.0782228779756873 107 36 14
-0.1565326036670853 -0.2426760826127227 1.0879062213462409 168 154 83
-0.2702916116458828 0.0301237186830280 1.1199416308442069 253 250 73
-0.2466163583009367 -0.1850829715918991 1.0489274259652743 27 43 30
-0.2279450201133481 -0.2347354776470916 1.0458886849032210 239 255 243
-0.2514111743175551 -0.2006159487105425 1.0499502329216581 241 252 254
-0.2459485001984399 -0.1870029060967581 1.0469026916894042 229 255 242
-0.1456025096381826 -0.2501684459763458 1.1024067088156879 34 27 0
-0.2430329010107662 -0.2035184854935795 1.0402026486593672 233 255 255
-0.2442934525545409 -0.1876594007934037 1.0436378863601183 240 255 253
-0.2642029704256271 0.0309568920987627 1.0883808211828530 255 246 134
-0.2674547857929369 0.0395915793348619 1.1026868403292829 89 62 0
-0.2430079164185232 -0.1990353983330947 1.0401578025577973 238 255 251
-0.1427940005140214 -0.0483840710953279 0.9420829584974399 129 144 137
-0.1427940005140214 -0.0483840710953279 0.9420829584974399 129 144 137
-0.2435641324423141 -0.1826152918412649 1.0446897893257350 246 255 255
-0.2405689842012984 -0.2044978699527153 1.0384143865011310 244 255 254
-0.2401033684030968 -0.1972824283116421 1.0381071133212776 248 255 255
-0.2350819584269622 -0.1679376778947264 1.0355977020156044 239 254 249
-0.2616335372128650 0.0305151520373757 1.0792273933885357 140 38 52
-0.2195667484220222 -0.2291554177267493 1.0409140937769212 65 78 69
-0.1388093279724733 -0.2434543609438609 1.0952313530429498 143 140 73
-0.2624460665469796 0.0215089212395933 1.0880552914411321 140 57 65
-0.1708728459886268 -0.2410707618582281 1.0694393989525708 24 7 0
-0.2380929719360997 -0.1752823134224910 1.0376220911826626 250 255 254
-0.2367432119602746 -0.1906706427211391 1.0344204641386905 237 255 255
-0.1199669652037076 -0.2461176983664860 1.1046272730527258 211 208 141
-0.1197100794546997 -0.2458323841324200 1.1047147079327320 211 208 141
-0.1716774583765538 -0.2386571953461356 1.0641016788426363 126 111 88
-0.2196956205158357 -0.2224538600483835 1.0362329517881055 242 255 237
-0.2583168744878325 0.0815021358127867 1.0880887710098195 255 247 90
-0.2206954358587791 -0.2186992947741472 1.0342062848468843 100 109 104
-0.1138289071615028 0.0064942058058641 0.9384496322078761 255 235 162
-0.2343707455132911 -0.1839197294313098 1.0321597676770384 236 255 255
-0.2253986835069794 -0.1741141516163350 1.0228131904241018 241 255 253
-0.2320274289878118 -0.1552373702975426 1.0376233087793387 251 255 254
-0.2167675027238442 -0.2189000130727190 1.0332031931671453 77 89 79
-0.1666252852070894 -0.2032608798149326 1.0754659718673474 156 153 102
-0.2570737365899133 0.0605965254173469 1.0676407099103391 255 255 138
-0.2335400791457264 -0.1621419211951421 1.0375339567213429 242 254 254
-0.1115443642184833 0.0096361414556952 0.9339162995226868 255 235 155
-0.1630358568097013 -0.2344752750432187 1.0642208751651907 132 117 76
-0.2484875225644149 0.0930300128290120 0.8730466047508927 48 22 23
-0.2216533032052677 -0.1583077129781248 1.0190118034113576 249 255 255
-0.2560167857207501 0.0978935592837476 1.0693646733124744 165 44 49
-0.2548622867903699 0.0911764112174656 1.0759134321812913 255 247 85
-0.2574896043785034 0.0881992467878959 1.0742966730498040 255 247 85
-0.2296007020288675 -0.1543124154514038 1.0322469777051222 246 255 255
-0.2295461720036476 -0.1544195876367583 1.0325192435564565 246 255 255
-0.1334039695903258 -0.2306300874966778 1.0774138264715827 17 11 0
-0.2287835709276961 -0.1529629093129782 1.0311942480084730 37 43 39
-0.0215881624119480 -0.2513178115248131 1.1517546319564007 234 242 182
-0.0100216151200582 -0.2394081357636318 1.1301650382397423 239 245 183
0.1107003617043837 -0.2683345539522866 1.2406115598706182 66 46 37
-0.1186759599282547 0.0537249668592973 0.9108446982232875 103 110 77
-0.2045551573929925 -0.0932461722419000 1.0461767617462294 61 57 56
-0.2198231576348305 -0.1543887379090166 1.0172409614526170 252 255 255
-0.2380883559853465 0.0092566289211911 1.0354270792390159 255 235 111
-0.2175328621933828 -0.1564003081405511 1.0143193267602344 249 255 255
0.0851439737376708 -0.2559895036284624 1.2211139013341921 195 20 35
-0.2083194666886969 -0.1537527585246948 1.0056086017049199 250 255 255
-0.2228803680942769 -0.1687774373965837 1.0203681354960543 237 252 245
-0.2431791997079212 0.0717936176560925 1.0430080740472996 255 248 114
-0.1509221343599313 -0.2174413194012686 1.0350814603931633 147 159 93
-0.1102558526582618 0.0812067253462578 0.9003226166143259 14 5 0
-0.2565383631441778 0.0895026241641739 1.0704228246171494 87 28 20
-0.2462823245918268 0.0784848606590582 1.0492122007293323 255 255 93
-0.2207658872460255 -0.1567774274624965 1.0178259402093324 46 56 48
-0.2440680943436172 0.0999541530521010 1.0414547368949933 255 228 92
-0.2195815363899752 -0.1584024312822375 1.0166227553592400 241 255 255
-0.2193943425423313 -0.1583911186491585 1.0164501448505796 241 255 255
-0.1654630901543358 -0.2218542252740787 1.0360027847657101 39 43 16
-0.2114772361662917 -0.1259244943843908 1.0115225098953928 251 255 255
-0.2502094437885019 0.1211676478312555 1.0442814673804734 255 239 104
-0.2417157733388527 0.0889983626490173 1.0317273017065409 243 234 157
-0.2408478724202501 0.0847390192327366 1.0394244040281080 167 73 97
-0.1503810950698287 -0.2177846890723601 1.0378853285389906 36 34 13
-0.1503939657821663 -0.2177706027342321 1.0378602470575731 62 50 28
-0.0667465900227011 0.1149256172245519 0.8966480807184234 110 115 118
-0.2414096367494450 0.0897876892902717 1.0353691131180749 201 139 140
-0.2415699410061629 0.0897460327749730 1.0356014901977595 164 48 69
-0.2106754445323828 -0.1426720749012085 1.0070242912342386 245 255 254
-0.1238717393402051 -0.2127152103871667 1.0474889875090774 110 102 63
-0.2093321960077603 -0.1400436714353767 1.0059028732761499 245 255 253
-0.1988199788753521 -0.1702539628211168 1.0040793074573851 247 255 249
-0.2423664531835029 0.0776050623728892 1.0404902970809240 255 230 137
-0.2425544754771316 0.0776251469934965 1.0405547282555303 255 230 137
-0.2012725350608006 -0.1185472510838689 0.9963357444735648 61 72 64
-0.1307915693826175 -0.2101090000147710 1.0368997734205738 43 29 0
-0.2155840565618686 -0.0798904502122495 0.9901272209951040 155 157 178
-0.2233463195457425 -0.0539251930102139 0.9946438591687986 104 98 100
-0.0360357937585224 -0.2068648581774806 1.0764226594659407 201 219 143
0.0338197241974563 -0.2384419608664863 1.1114812595736836 192 205 135
-0.0452218748347808 -0.2094365504415531 1.0839274695933807 20 18 0
-0.0175334921793443 -0.2171773145236164 1.0934913519559935 230 232 169
-0.1989302745949916 -0.1160115391870300 0.9931816992463888 244 255 254
0.1039342858526308 -0.2280317053806897 1.1341550348306559 203 195 133
-0.1976771766310359 -0.1152440186510523 0.9920000552140135 77 94 84
-0.1599016121956082 -0.1743277163313366 0.9932792278429073 246 254 207
-0.1856193375779389 -0.0886222553202138 0.9835661558708240 239 253 238
-0.0091102244042707 -0.2099817252534799 1.0743253561383768 225 234 177
-0.1298621335303682 -0.1859398645473316 1.0015694908176347 209 212 143
0.0693430842983847 -0.2168382154053705 1.0887812614976091 174 185 145
0.0699447032157226 -0.2072874603609441 1.0783756217448794 181 192 126
-0.2405672906829223 0.1737138607042824 0.9738622295547290 224 179 114
-0.1648390199206356 -0.0472252651371258 0.9675465721955401 201 223 211
-0.1344635698935903 -0.0204813257073761 0.9426656704467207 0 20 5
-0.1845526261202345 0.0204909716617885 0.9191085121342139 154 115 116
0.0988668072037358 0.0021160157983263 0.9547426138440175 113 112 128
-0.1190281154094165 0.0455204921919256 0.9125206130759492 190 224 199
-0.0998860087154630 0.0020966894135465 0.9158288551795866 248 255 255
-0.0982934217907383 0.0009220325758519 0.9096198705380564 251 255 255
-0.0895098373145160 -0.1798155990786497 1.0155512721033257 73 70 53
-0.1381217297381724 -0.0397848755181326 0.9225981616069385 247 255 255
-0.0895098373145160 -0.1798155990786497 1.0155512721033257 73 70 53
-0.1355687192572783 -0.0366100016802700 0.9245169831912428 247 255 255
-0.3821007272728183 -0.2667331948291491 1.0583760809430944 35 36 41
-0.3908190282873433 -0.1316949789809308 1.1079343434432096 254 233 214
-0.2002785461539794 -0.1634822560547606 1.0033175345883507 242 255 248
-0.2426720434213650 -0.1781465961552519 1.0448992158687358 159 172 165
-0.2380994136215540 -0.1658471758781835 1.0434886724382240 250 254 253
0.0040276463218563 -0.2388919859991300 1.1193530895900567 223 232 165
-0.2380994136215540 -0.1658471758781835 1.0434886724382240 250 254 253
-0.2092019123775023 -0.2919962471010198 1.1508166346901663 110 98 46
-0.2339508291504305 -0.1805401182128861 1.0318023732111183 57 73 73
-0.1987302922578674 -0.2923334808508243 1.1664026696559837 115 99 48
-0.1814538109127949 -0.2912756579589306 1.1680529434481870 110 98 40
-0.1814538109127949 -0.2912756579589306 1.1680529434481870 110 98 40
-0.1301402776165033 -0.2346514269506258 1.0868713646295767 6 1 0
-0.1706529031539560 -0.1911454785074304 1.0065930464401132 224 239 172
0.0419757229123429 -0.2071641513068769 1.0705178491343501 191 198 128
-0.2000433321301739 -0.2847512700930196 1.1361585039115794 118 100 50
-0.0974379779573455 -0.0023569250875788 0.9154432536388007 246 255 250
-0.0973759370186807 -0.0021858851011977 0.9154249488784949 246 255 250
-0.1301770082760202 -0.2277775265817362 1.0753451513178627 139 126 58
-0.1690082052542056 -0.2266283948716630 1.0413183284703915 163 169 107
-0.1888117318050042 -0.1506280098387205 0.9927425384780971 255 200 75
0.0289710319763593 -0.1916274221637281 1.0503656787411975 183 193 130
-0.0418170221100296 -0.0478564280984280 0.9059666709281692 185 198 128
-0.0418170221100296 -0.0478564280984280 0.9059666709281692 185 198 128
-0.1891088150416348 -0.2883444712514548 1.1511423291119955 110 93 47
0.0577755680178554 -0.1925324177978515 1.0596551449918912 9 17 6
-0.2410186568099651 0.0096520996957833 1.0352232551868319 190 75 82
-0.2153120003544642 -0.1241966326397280 1.0164789457613443 250 255 252
0.0778237990955915 -0.1791661641706638 1.0560856467889372 122 126 89
0.0058518048048283 -0.2444200366965277 1.1295902272122205 214 228 179
-0.0664348488046169 -0.2718593430683490 1.1884491012465790 178 191 109
-0.0750728555161124 0.0912873832553511 0.8933565192439510 119 119 121
-0.1422521437696481 -0.0163620350760658 0.9547490796366099 206 229 211
-0.2024518417051616 -0.1542715062309251 1.0022916997741298 61 81 72
-0.1376677493286523 -0.2741225005673609 1.1471154329704460 20 16 0
-0.1409485850347975 -0.0320590777881727 0.9390876378366754 243 252 249
-0.1397350204368187 -0.1726473637155393 0.9902455441132550 210 226 164
-0.1397000821147360 -0.0166929941951640 0.9336088673126496 6 22 11
-0.2429141061684373 -0.1934173593648233 1.0412751807077338 249 254 255
-0.1282770502151055 -0.0149059678425594 0.9339328669005019 226 248 227
-0.1404250812112703 -0.2421830794698356 1.0921000711953492 144 145 85
-0.2394353731593447 -0.2287067423371715 1.0543109845359497 214 244 234
-0.1505938167402786 -0.1907909697420258 1.0051656624534384 201 221 158
-0.2339066524361117 -0.1587953615680260 1.0404181786077871 245 255 250
-0.2302858635040184 -0.1511621403074832 1.0352052426272704 243 255 249
-0.1021496495183246 0.0026112499751747 0.9210178427049250 242 255 245
-0.0980226267434279 -0.0055866163742559 0.9215928577055906 246 255 250
-0.2224913433053541 -0.1380457867342479 1.0305205665166117 240 255 245
-0.2015127815692032 -0.0750200500401773 0.9888589154340620 135 116 122
-0.0957363253641728 -0.0026163810387879 0.9114171878355359 244 253 248
-0.2475648324475478 -0.1832349936599749 1.0536141717010108 243 252 249
0.0398029698292316 -0.1986870363359513 1.0610746394766550 31 40 19
