ply
format ascii 1.0
element vertex 696
property double x
property double y
property double z
property uchar red
property uchar green
property uchar blue
end_header
0.0995541787970512 -0.0467038188148289 1.0657795818842521 205 202 109
-0.0682405832646563 -0.0933040582910895 1.0219686493683058 201 202 124
0.1436151630798469 -0.0484562989546439 1.0863730745694238 177 155 105
0.1428171085339643 -0.0487901957878067 1.0836626764204329 181 157 87
-0.0293449221035194 -0.0961870385484473 1.0499136184191908 162 148 75
0.0768160681362737 -0.0574560919599750 1.0595357100613516 196 197 119
0.1864899885237999 -0.0501400269766503 1.1157382567140979 37 20 2
0.0324614662429664 -0.0602837833928756 1.0447482517636906 207 215 138
0.1632215077974089 0.1185347613438937 1.0929138866578860 14 14 14
-0.0207511877552346 -0.0969418022621728 1.0559740825858350 175 169 95
-0.0310585971819484 -0.0949376590319376 1.0489811873793917 12 3 0
0.0124248275786788 -0.0774950415922070 1.0501041800944808 241 255 196
0.0726400837541387 -0.0564354832848341 1.0570303890914252 204 201 124
0.0726512048006748 -0.0563936692358903 1.0567560137322336 204 201 124
-0.0701075456807113 0.0308924914505173 0.9887826841612989 199 201 118
-0.0252348065469957 -0.0909147730418071 1.0504060920032345 152 143 74
0.0322123020026738 -0.0652456096886310 1.0473191323926836 51 55 32
-0.0222220803715401 0.0432593056125020 1.0045939593316207 118 98 47
0.1057663346482045 -0.0480085058187555 1.0678447673167650 60 51 18
0.0924204327986407 -0.0498608160730267 1.0633843549270121 53 42 20
0.1197793555151834 -0.0448426464858991 1.0728351171164798 195 189 111
0.0443128382531117 -0.0591574710574908 1.0487512600818878 193 199 129
0.1206211229508690 -0.0428142801317110 1.0727335160501517 51 37 11
0.1205558115653250 -0.0428229269982288 1.0727133494419923 51 37 11
0.1231624399338727 -0.0426407306316691 1.0739169811434208 194 185 106
0.1662562683828373 0.1250569654139070 1.0946887384348878 24 22 23
0.1471534142921166 -0.0410094973505799 1.0867983367660436 154 39 20
0.1471836862276996 -0.0412325591987284 1.0865742335565021 154 39 20
0.1662473198386730 0.1250232546611156 1.0946274432371017 24 22 23
0.0472959289559614 -0.0569033265848132 1.0480277288996251 208 211 140
0.0723540611059200 -0.0513439855562380 1.0558949818464158 200 195 114
-0.0909471947456891 0.0681748586814331 0.9869106821570408 41 39 14
-0.0367972832877849 0.0451240945557616 0.9997292726673053 131 125 89
0.1326487618311133 -0.0404414602001237 1.0783055758447233 181 165 90
0.0921291786209790 -0.0461553509903524 1.0626366581703830 59 51 15
-0.0560821503669942 0.0414087253069549 0.9933664372043399 57 44 9
-0.0911915586612637 -0.0949443109539704 1.0197388296145351 226 237 169
-0.0574281031445390 -0.0804123821487803 1.0214763111645362 173 165 102
-0.0923169935448876 0.0686793241641820 0.9868573113461890 194 210 148
0.0120135040173973 -0.0668354694730218 1.0444750759336288 222 233 167
0.0120135040173973 -0.0668354694730218 1.0444750759336288 222 233 167
-0.2084459827197059 -0.0649696685326050 1.0681661236279480 237 227 235
0.0764731375910168 -0.0498184278652146 1.0576584832175731 199 194 113
0.0336937536167995 -0.0566296437781870 1.0434412390754841 213 214 148
0.0338109091996774 -0.0565786411187404 1.0435163887962138 213 214 148
-0.0063384574019081 -0.0757533574497187 1.0474547428913168 54 51 32
-0.0063384574019081 -0.0757533574497187 1.0474547428913168 54 51 32
0.0371599200233265 -0.0545938078798376 1.0440482779384406 210 213 142
0.0371139761065520 -0.0546270980640791 1.0437361878655207 210 213 142
0.0597782347335021 -0.0500778018665616 1.0515130244768438 196 193 124
-0.0601108001818228 0.0806598808163801 0.9966104472955464 53 51 13
-0.0601892592877502 0.0806091209268189 0.9966433559844591 53 51 13
0.1763549194256063 0.1331305995513005 1.1020980876397097 20 21 26
-0.0227034805030949 -0.0780329059439853 1.0433905392155791 75 66 11
0.1763549194256063 0.1331305995513005 1.1020980876397097 20 21 26
0.0311247118288394 -0.0528512205285029 1.0411349166370623 213 220 143
0.0311501060934559 -0.0528798151347440 1.0413656973281813 209 222 166
0.0982044494421900 -0.0419341900870300 1.0640408525765916 211 212 144
0.1616465285058618 0.1305851432424531 1.0930730065331575 21 25 24
0.0194888645629009 -0.0564874787660140 1.0399671014959704 221 226 162
0.0401185157581161 -0.0510184622574191 1.0432606182379418 201 202 134
-0.0565607826808957 0.0489513851860471 0.9938835422170469 38 33 3
0.0826656462842503 -0.0413781469141640 1.0575914878562584 35 32 17
0.0077008740431448 -0.0626266564654461 1.0414879971898197 229 232 165
0.0228552128920774 -0.0513827361701951 1.0382104252419495 53 51 26
0.1468356788799030 -0.0308480179139898 1.0866630675318798 97 35 0
0.0018554666320679 -0.0612950771227736 1.0404348054370784 235 242 172
-0.0569112566799670 0.0510391838371474 0.9942304756948488 43 39 12
0.0068147756414287 -0.0577251343897106 1.0390170511270058 227 237 168
-0.0946846299571854 0.0732899401279036 0.9868755383563379 9 3 0
0.1023574600934377 -0.0336912580311234 1.0640775506601317 213 203 114
0.1794895241515793 -0.0312049990005201 1.1100864471424037 89 61 39
-0.2319380396273984 -0.0711436378915119 1.0833095464922018 255 191 204
0.1609189104641613 0.1333211242069506 1.0926267051759231 19 20 24
0.0211581893506545 -0.0500333323433378 1.0374792363497038 217 224 157
0.0331852105447443 -0.0453620067242113 1.0388150006399177 203 200 119
0.0331921791682165 -0.0453522754893029 1.0387748080681556 203 200 119
0.0142117666714359 -0.0530437372926981 1.0377396546936348 65 60 41
-0.0393874657483773 0.0597613528443426 1.0001869413566300 177 185 125
0.0269974322162559 -0.0445210133531387 1.0365824290369456 54 48 22
-0.1449443001069983 -0.1162130304841778 1.0360535616609503 239 255 248
0.1700008267327597 -0.0263203549466424 1.1026822173177884 85 3 0
0.1694984283038928 -0.0263910845770091 1.1016037962740755 145 25 8
-0.1109651353114660 -0.0873981025662566 1.0195475804484229 246 255 206
-0.1109899439006698 -0.0873769970785203 1.0195575547952238 246 255 206
0.0105258308753909 -0.0459025466934331 1.0337502800376757 52 50 12
-0.1102747974186224 -0.0845684849371142 1.0189928008976532 245 254 211
-0.2142355764610197 -0.2034304912803694 1.1281941218574076 150 70 61
-0.1170844049556710 -0.0875181267279131 1.0212877832237603 247 254 212
0.1126741498383615 -0.0149558001707117 1.0655953756819270 116 89 42
-0.1019400180845684 0.0797534258823797 0.9857438186621217 197 207 155
-0.1526139431142058 -0.1103562272330783 1.0393903368421318 253 255 245
-0.0487568694008808 0.0938769753473072 1.0047772186994430 166 163 94
-0.0266774670597315 -0.0394449723884153 1.0165123810220860 110 88 47
-0.0854975984680637 0.0862454593743738 0.9909766066914665 215 219 135
-0.2191601921251201 -0.0430487356784691 1.0791093920923509 209 184 143
-0.1881861556440570 -0.1899143130201069 1.1385811673323012 122 91 71
-0.0981535125629902 0.0584681649730250 0.9856948743610627 220 233 154
-0.0599531230734805 0.2123498860624591 1.0637803815673419 165 166 170
-0.0919301259751753 0.0618639511696871 0.9871392243996127 43 38 32
0.1329461133734506 0.1336203218060809 1.0928811308674582 0 9 19
0.0975535769842181 0.0008790148727919 1.0570870127722209 174 179 185
-0.0733285323286414 0.0925012534008994 0.9960181478284468 211 208 127
-0.1994391729807095 -0.1963323675562017 1.1649363035663820 114 81 66
-0.1997747653793539 -0.1961623920404365 1.1644071782923875 114 81 66
-0.1992783845248618 -0.1920869599153913 1.1655230000909185 64 15 18
0.1679781166762693 0.1282301952877568 1.0964340432894175 171 169 172
-0.0651624567201879 0.0779503605843199 0.9946457188427902 196 204 119
0.1571196056536869 0.1530837178124850 1.0914489114253618 6 7 12
0.1575788199372716 0.1527167689665679 1.0925972662847305 22 22 24
-0.0940896916019936 0.0695113406716749 0.9867571964069133 33 40 22
-0.0817585609152125 0.0783764553728501 0.9905974630558860 46 44 0
0.1340349296513179 0.0232165631081902 1.0750995262572836 161 168 176
-0.0940389195787479 0.0756341819579364 0.9875826161871760 9 6 0
-0.1002920086013311 -0.0345262763258312 1.0080777241423140 254 255 255
-0.2207488913980870 -0.0250837858646819 1.0766351189304999 216 191 135
-0.2193022581388523 -0.0119413912314984 1.0621195569126771 158 168 160
0.1334749665360851 0.0293509676966716 1.0749553541053429 141 144 161
0.1716786312443858 0.0314191488927145 1.1001449136723396 126 91 51
-0.0831608792630437 -0.0127820671102280 0.9985622137131610 250 253 198
0.1861653206007159 0.1478366356584448 1.1092263152836546 179 173 161
0.1889097838490462 0.0378695379495387 1.1119797188395224 127 87 38
-0.1940675418688413 0.0112136133448057 1.0539059819434802 101 117 143
0.1698276377981912 0.0433147115587712 1.0979078268116813 130 95 41
0.1860236368358679 0.1544141996211046 1.1052254751202926 117 90 45
-0.2151280386754760 -0.0253403208477460 1.0743893992638205 255 254 253
-0.0971571982075656 0.0881927948910319 0.9888360285238664 201 204 117
-0.1061691829694471 0.0880413661486611 0.9870356461762928 1 4 0
0.0688321505341013 0.0392845848106033 1.0417798335002102 42 26 27
0.0688321505341013 0.0392845848106033 1.0417798335002102 42 26 27
-0.0472080067098044 0.1066768415948402 1.0101506867010479 153 146 91
-0.0976232418464467 0.0954545657286008 0.9906655916205671 27 40 30
-0.0870273963765165 0.1013176526990548 0.9946091826747709 189 199 126
-0.1028596431953688 -0.0000569951352129 1.0061499543095263 144 147 166
-0.1657798498319973 0.0493613372367340 1.0371910344118374 219 216 165
0.0462257150834640 0.1381839633205196 1.0498277309266799 23 21 24
-0.1024345424252372 0.1007309628502675 0.9905298269201538 211 220 165
-0.0689566783216081 0.0270132799321940 0.9890768141958695 197 198 130
0.1541904317750755 0.1690907979218575 1.0933881624826765 21 20 26
-0.1032156306268495 0.1036206535057971 0.9910833770497464 39 41 27
-0.0367131964050714 0.0378036594765693 0.9993558351489006 79 72 20
-0.0565397737054686 0.0351829009084061 0.9929776054550650 30 27 12
-0.0564494139040235 0.0351373436245236 0.9936331778359471 8 5 0
-0.0540596886931600 0.1189195739696125 1.0131056186477057 144 130 83
-0.0540596886931600 0.1189195739696125 1.0131056186477057 144 130 83
0.0562089557280666 0.0681357909100392 1.0393583002401872 6 9 18
-0.0864346255210822 0.1154420395526343 0.9981427692760284 187 183 92
-0.1039474381493655 0.1105324482646074 0.9939996921204596 233 239 175
0.0569342111710526 0.0706913263506116 1.0404789473618306 175 192 208
0.0965206809688357 0.1648648339110871 1.0727799970059362 45 63 85
-0.0999104850496339 0.1138082059407041 0.9938316277712842 227 237 174
-0.0587876590174886 0.0495569953502939 0.9932800889965637 198 204 108
-0.0567155115648932 0.1268982506681793 1.0150383365894786 50 37 5
-0.0567155115648932 0.1268982506681793 1.0150383365894786 50 37 5
-0.1534084196712741 -0.0105770010560557 1.0423093986192367 242 255 235
-0.0900535973560371 0.0501035447202645 0.9869769455393547 216 221 139
-0.0892080379006506 0.1249239410360660 1.0005619249620472 173 176 105
-0.1796329598149892 -0.0100346448230483 1.0494319767547073 194 203 208
0.1633110138367614 0.1961120624539792 1.1041125837007217 22 25 30
0.0563809561505371 0.1000104713005152 1.0459200265227979 184 189 195
-0.0933028437610887 0.1299756208601363 1.0006249626909909 206 213 143
-0.0933028437610887 0.1299756208601363 1.0006249626909909 213 220 150
-0.1782613962069826 0.0796651478924056 1.0367349283476077 209 224 205
0.1689886567620027 0.1299349751363836 1.0965661862886555 25 25 25
-0.1781565958269119 0.0823789123343416 1.0378719134746057 208 224 185
0.0483737760798556 0.1098929257043005 1.0440819931372436 163 171 173
0.1446121849962603 0.2017442118667890 1.0985867857815037 1 9 20
0.1446121849962603 0.2017442118667890 1.0985867857815037 1 9 20
-0.0608031941075659 0.1450725120153892 1.0218228511017422 159 159 85
-0.0503155484384211 0.0907755503162674 1.0031354788122724 171 164 109
0.0890998163999376 0.1910705438915901 1.0792523290047356 11 19 22
0.1430033208028282 0.2064655251626058 1.1004193553818560 5 24 41
-0.2467393564124944 0.0437834701563355 1.0803166353565947 143 97 82
-0.0794318600744822 0.0876651141335405 0.9930721317685770 203 208 118
-0.1823798665969877 0.0896312614444893 1.0379496543990463 171 174 127
-0.1808880996008942 0.0906304087529074 1.0381137543426517 47 47 13
-0.1810395896977293 0.0903875793420195 1.0383876843768736 16 21 14
-0.1810395896977293 0.0903875793420195 1.0383876843768736 16 21 14
-0.1791244610805033 0.0913978255396008 1.0400289193812888 186 203 149
-0.1791244610805033 0.0913978255396008 1.0400289193812888 186 203 149
-0.1801449747050429 0.0948719753626991 1.0393155023075884 163 179 117
0.0523524695527701 0.1264968693072282 1.0495531628553405 21 16 20
-0.1808412269903961 0.0991624128689681 1.0417215671970892 162 160 85
-0.0615754105252706 0.1568820683245669 1.0264280878179910 187 184 133
-0.1518282030515428 0.1246154918686468 1.0122294713847642 95 85 84
-0.1871840334886151 0.0995443224613877 1.0396087730470667 95 82 66
-0.1652221618101304 0.0417812880809891 1.0353430202429152 254 255 248
-0.2588221334282655 0.0575181007515891 1.0703198474461630 84 43 41
-0.1899473268674303 0.1010535528343018 1.0400269708915881 129 121 110
0.1630012956152528 0.1613720181621791 1.0952038875881687 177 187 189
-0.1869055257836507 0.1082420687726017 1.0405043086644696 16 8 6
-0.1198315178328445 0.1483590606966603 1.0171483574085858 220 240 181
-0.1912325589531375 0.1115903491552224 1.0405550970765725 28 19 4
-0.0571393851923880 0.1799325889324351 1.0419636186759744 118 102 50
-0.1463172816356315 0.0710671701968313 1.0423684846247017 241 74 94
0.0383936742506140 0.1545191717647110 1.0506144249930263 174 185 191
0.0383936742506140 0.1545191717647110 1.0506144249930263 174 185 191
-0.1764372496185898 0.1353064876548566 1.0377187360100799 11 2 0
-0.0550111541427501 0.1332739415100337 1.0185705923313366 156 142 77
0.1476792530292256 0.1917454198295955 1.0966334803300548 36 41 47
0.1525435244411016 0.1938654273148005 1.0998821659570137 26 39 47
0.1501256282634777 0.1956085617789077 1.1023344863002920 171 187 203
-0.0510993023396210 0.1953899402174456 1.0520917990949621 14 10 9
-0.0945721839548091 0.1355384068124272 1.0031087136565957 206 217 139
-0.1916705753551981 0.0957284556323284 1.0426614038879736 107 80 61
-0.0545931783763473 0.2105461050781934 1.0635172249351093 133 123 114
-0.1716950781798986 0.1219487787359639 1.0345090615676205 159 185 160
0.1329046558493646 0.2375277225936019 1.1176438966120457 174 195 212
0.1290841978460925 0.2406705136004793 1.1202342170052615 10 20 30
-0.1488617552109198 0.1554420023981698 1.0285702016115601 134 135 140
-0.1488617552109198 0.1554420023981698 1.0285702016115601 134 135 140
-0.0959177002948248 0.1928036300437148 1.0339644238784813 19 11 0
-0.1086934734268775 0.1901141580301965 1.0297139491632437 147 136 80
-0.1376213074556998 0.1920367836932888 1.0331002293216052 20 19 14
-0.1617277711736003 0.2041229155180068 1.0459252404462722 28 24 23
0.1541046291713804 0.2142808463773503 1.1083557409896503 179 198 215
-0.2982305121135612 0.1983234560945321 1.0027056500100009 152 96 73
-0.2982305121135612 0.1983234560945321 1.0027056500100009 152 96 73
0.1902062257526927 0.0426931650439315 1.1134618891795500 131 89 41
-0.0688092217004256 0.0042223974990260 0.9929708056288120 202 204 129
-0.0829027632959888 0.1594982339346387 1.0200036381943238 140 124 62
-0.1446163116015583 -0.2345979930480248 1.0638753262200047 58 65 47
-0.1844790140278991 0.1098773166182727 1.0408074719276748 130 135 94
-0.0525426482334356 -0.1939427364990383 1.0844631021511741 172 165 87
-0.0224141076114286 -0.2145187065499607 1.1067346681289292 179 175 86
-0.1789100910093306 0.1150532339984583 1.0476280359094186 97 92 50
-0.1499970553356165 -0.2421968057306669 1.0936939320588759 51 61 36
-0.0311540546846516 0.0275759257334825 1.0017656028728803 200 203 126
-0.2224004947715965 -0.0954174964769500 1.0944577888421285 141 21 20
0.0831862705538043 -0.1345385530987188 1.0979015750740642 102 107 66
-0.0542421438502270 0.0438315054367344 0.9941694775058983 209 218 151
-0.1791322689304821 0.1304031563044856 1.0376436485409815 109 90 60
-0.0670530214576531 0.0349101687023924 0.9893845695266154 192 193 99
-0.0448056880533297 -0.1486945057392751 1.0648664226796509 100 88 48
-0.1088152329717997 0.1822796096806135 1.0236578482254477 143 134 75
0.1586704644948385 0.2017727174513962 1.1045006683623733 30 40 50
-0.0387067039965258 0.0631768254940429 1.0007896686141988 37 37 9
0.0544923610758695 0.0821004675607412 1.0407853893816021 175 186 190
0.1431822696859698 -0.0753919430049264 1.0868479494022094 201 202 144
0.1431822696859698 -0.0753919430049264 1.0868479494022094 201 202 144
-0.1539198006528226 0.1658080146575656 1.0370379129573073 25 16 17
-0.0659398374600559 -0.1263418907426313 1.0389546827317213 154 139 70
0.0593427560636894 0.0883211108631079 1.0436499406799353 177 195 207
0.0839657933088029 -0.0866375991577057 1.0711817167249926 216 223 155
-0.0756350221144062 0.1417738259204347 1.0133655360702174 126 115 69
-0.1760859744504824 0.0890544580158441 1.0445204365387923 42 23 0
0.1667281838582530 0.1108096899432296 1.0947406789894327 166 165 161
-0.2554205480528124 -0.2135498299352123 1.0569373994915481 157 101 44
0.0557394482452392 -0.0825462460946686 1.0606190213267279 209 212 135
-0.1213527893375038 0.1937174806110299 1.0297228206563418 133 128 64
-0.0597200251941009 -0.1084281115454353 1.0337745455159155 152 139 69
-0.0620811872606186 0.0662749435065740 0.9938974831730786 193 199 99
-0.0096497292883603 -0.1064039490415624 1.0649202071805237 211 214 133
-0.0597533991916815 -0.1121011030948125 1.0321114969221992 168 155 100
0.1245156568745690 -0.0590984002750353 1.0767536977687089 21 20 2
0.1649698603632454 0.1206650086180330 1.0930473193936181 143 147 148
-0.0317179191727790 -0.1162883067059444 1.0597735414770184 32 20 0
0.1430432424324452 0.2173370672554242 1.1065590604044646 177 200 214
-0.0865561092830179 0.2188729910519421 1.0595421276685280 28 20 1
-0.1536774078822045 0.1957798409610002 1.0438104184582853 92 115 123
-0.1963914208093386 0.0998130892000654 1.0425748628093188 103 66 47
-0.1839354031627056 -0.2116621905972046 1.1354098030090161 141 90 59
0.1693184244025969 0.1059675998367925 1.0959944786528071 120 119 115
-0.0333555617812857 0.2397712987802351 1.1049351886765404 159 163 162
0.1829597844813541 0.2407251889452953 1.1309583445331817 75 50 45
-0.1046859131693526 -0.1079217024904328 1.0229513748699863 236 245 188
-0.2246475403940604 -0.0227331387211204 1.0808240030106113 179 157 37
-0.1661608963164407 0.2038918853604661 1.0492247703199453 90 88 93
0.1751177817075802 -0.0249687492722227 1.1058077187065707 167 135 58
-0.3285318054649812 0.1766533999124133 0.9362347924408703 77 67 78
-0.2259338893010829 -0.0182291077379286 1.0788588094030633 214 101 85
0.1623558915777983 0.1442913481862499 1.0942364696366649 162 172 171
0.1624419189292085 0.1442588563355593 1.0939633726834055 170 184 187
-0.1621301593376570 -0.1088796990559377 1.0450832226792373 254 255 255
-0.2296586456766768 -0.2082812894980450 1.1103230401960194 181 96 65
-0.0826319689037778 0.0934389941665761 0.9930051323973911 196 195 105
-0.2311304818847290 -0.2021680812932120 1.1068184254826019 175 94 65
0.1845166315002609 -0.0260973768588819 1.1114562185845942 168 141 70
-0.2042888295961135 -0.2844007089265264 1.0184253752487726 63 33 31
-0.2025553380423063 -0.1904611237035807 1.1712349357727991 101 66 47
-0.0967952303635935 0.0976285399287762 0.9906431189910462 182 188 114
-0.1638811025102857 -0.0919788450223044 1.0463328176165811 255 253 255
-0.2338047368145776 -0.1960035256712396 1.1053141094523740 158 81 55
-0.1970778532017711 -0.1978896557232895 1.1644408801634996 51 15 19
-0.2144187646314079 0.0544973893850551 1.3254221500571424 205 180 139
-0.1887773919787821 0.0176921441099517 1.0861648812944682 152 112 110
-0.0530390994765112 0.1153955904373132 1.0110033021347586 55 44 14
-0.2493071493203028 -0.1710156711334636 1.1059891511162869 189 117 77
-0.2493071493203028 -0.1710156711334636 1.1059891511162869 189 117 77
-0.2289398153462267 0.0137868593591597 1.0751800516106425 102 9 4
-0.0370407837990585 -0.1788826408965083 1.0854703975415352 189 185 98
-0.0879698313751344 -0.0231610153269996 1.0018113800226383 78 87 68
-0.0725147526190851 0.1793295735846512 1.0347363974545156 34 35 19
0.1269241709167557 0.0174451999600418 1.0712912942449944 76 104 144
0.1272686060745273 0.0175944521909306 1.0717688298750234 58 91 124
-0.1585882875487699 0.0630450449461958 1.0550961343895309 161 155 119
-0.0844650639513817 -0.0205959088419604 1.0010825377830781 233 241 184
-0.1758738749182635 0.0756105822124467 1.0366942854578214 204 223 193
0.0377700347004949 0.1595549049096051 1.0513934433434640 165 183 193
-0.1511858817332963 0.1649454962653798 1.0352882308343505 97 106 103
0.0371547223289787 0.1593267394308695 1.0510603619025340 173 180 173
-0.1582948598363800 0.0821729291643359 1.0470306834517764 248 255 247
-0.0684397540985786 -0.1061868145894528 1.0272966173568696 189 185 98
-0.0918264626011219 0.1355392987707903 1.0038649479968880 197 201 116
-0.0813009738144336 0.2004013884015984 1.0442153438846651 41 33 20
-0.1811527443035466 0.0853994725519136 1.0375474519711896 199 215 179
0.1064568757959464 -0.0603302015328620 1.0707485407717698 207 202 120
-0.1652419824868239 0.0884242391659961 1.0422379315279340 232 251 223
-0.1486346802696980 0.1784798362246766 1.0408654141965514 26 20 22
0.1535829385398666 -0.0512778047045777 1.0910358262387496 173 139 67
-0.2745943669459873 0.1597864243627228 0.9291847573524328 238 242 207
0.0901599302024068 -0.0541257333907067 1.0634812824599225 198 193 111
0.0900219871952183 -0.0540729695131139 1.0633829551010747 198 203 147
-0.0977946075902039 0.2089011020607480 1.0478350347685312 107 105 80
-0.1572983871311517 -0.1375685049809437 1.0460468933923313 62 93 85
0.1039225613768009 0.2061330695851857 1.0950445719472996 136 142 154
0.1844810155979810 -0.0210366440946281 1.1117391314043912 154 134 73
-0.1869348989985239 -0.1618740318240612 1.0921332541337170 62 11 18
-0.1873977962030459 0.1139593122422010 1.0415433410850181 111 109 68
-0.1934891319855550 -0.1454211872040883 1.1240785055125768 255 255 244
-0.1523271507683527 -0.0706042825474872 1.0366201374649329 254 255 255
0.1619896512701326 0.0326703113019173 1.0925239432352680 35 24 18
0.1243647489820824 0.0331106553635748 1.0708133579984758 61 101 136
-0.1156975330881151 -0.0290893337797364 1.0107998793879129 195 208 214
0.1774275827083985 0.0488538436464609 1.1015520698378380 120 83 38
-0.1219811240253617 0.2194150851193863 1.0579306721643948 150 137 69
-0.0812444264972797 0.0146584102066361 0.9940362201935130 250 255 197
-0.0774755405131538 0.0442611747350833 0.9882493994538174 53 60 18
0.0591841514267195 0.0825612061697783 1.0431113810172612 178 191 199
-0.1792583006726520 -0.0179729929975895 1.0496683858609304 135 152 162
0.1758093909771445 0.1225841605787869 1.1003597860058816 165 164 159
0.1731123670206653 0.1326619946198625 1.1005022874591590 175 176 171
0.1061752075513151 0.1304839181353296 1.0677988974715762 24 26 38
0.1461730285883914 0.2252486472226822 1.1133882209642365 191 206 211
-0.1470299911092493 -0.0676701910023303 1.0341274475602489 213 248 242
0.1462679016447462 0.2255604985470505 1.1126579828968182 175 197 211
-0.1475827768224221 -0.0678811727729372 1.0336644820041092 153 182 177
-0.1751705925434888 0.1345027672110472 1.0370314208798896 16 5 3
0.0976345642755852 -0.1156080526356433 1.0892699869705560 138 152 93
-0.1461918168542055 -0.0546666688247284 1.0318680554996660 241 250 247
-0.1498978115139086 -0.1813194195446805 1.0467401554743303 245 255 240
-0.1279845243670387 0.1925251010074646 1.0287694003304866 125 127 64
-0.0317609882682664 0.0033573934005059 1.0048063462642713 68 65 10
-0.1043855297830082 0.2220970213957468 1.0628313799062723 151 147 73
-0.1261177769195274 0.2190917702055979 1.0538400623899407 127 111 52
-0.0023430761295826 -0.1324260255342430 1.0822989758378443 26 24 1
-0.1476296420666122 -0.0014690482937323 1.0368395374577561 255 255 255
0.0669339288147076 -0.0691183638505023 1.0593786082136902 197 194 123
-0.0823177131858829 0.0596619519873411 0.9884169733610867 200 206 136
0.0969910779736634 -0.0631104438555805 1.0677448568416987 82 77 39
-0.2236256313078255 -0.0444987063990963 1.0799538094914167 151 52 70
-0.0552814375845777 -0.0706118219889107 1.0197600928776580 51 35 12
-0.2223470056098277 -0.0447127564010557 1.0794111999676119 149 40 61
0.0829565117694182 -0.0585803048899597 1.0595840334638298 76 75 57
-0.1109660864816469 -0.1062035401022106 1.0231478117919015 139 147 98
0.0931816075993459 0.1633583064864964 1.0742089533916459 205 228 242
0.0893186015718553 -0.0402268592384845 1.0605366189399679 197 190 100
0.1024015474101780 -0.0383411402240972 1.0647092186042988 199 193 107
-0.0286092120239709 -0.0279087557447599 1.0094451532052964 193 196 109
-0.0286659068103539 -0.0277075181578579 1.0091700738427123 197 197 127
0.1087081799845092 0.0000852252586778 1.0604619025169340 172 176 179
-0.1465649593057854 -0.0898487793813061 1.0347180459614655 165 182 166
-0.0888888177538284 0.0912009912374112 0.9921913838776898 192 196 122
0.1383706819528787 0.2493094971912099 1.1291112061755146 156 179 193
-0.2868429079603510 -0.1558657961208491 1.1231157094463313 254 255 177
-0.1071310455947701 0.0046816437923576 1.0100342055909242 100 86 99
-0.1667662917304681 0.1937929947564327 1.0533698446162345 35 21 21
-0.0950399881373200 0.1005188126570803 0.9900448721196210 15 4 0
-0.1002616497880332 0.2254625777273090 1.0687563557523994 45 27 25
0.1626647181496851 0.2197672820871578 1.1149132031731155 167 180 189
-0.1586747734982989 0.0647331758054593 1.0515552091528195 13 6 0
-0.0136907915048930 -0.0625171233233321 1.0388272159828305 207 205 118
-0.1942643646386614 0.0151552407217836 1.0768299410240358 57 32 27
-0.1301689374480831 -0.2458545845949234 1.0704974776148528 224 243 221
0.0736647196587153 0.0030189738706652 1.0482123771740444 178 192 201
-0.1160474529555949 0.0292826120893928 1.0010785229069110 92 69 77
0.1495198619016590 0.2329560973881587 1.0982047474217542 170 192 205
-0.1816454325360778 0.2351903230804821 1.0602545133974459 94 81 49
-0.0680199253405450 0.1460940028156636 1.0178272542425693 47 30 23
0.2313787978184490 0.2391532483044622 1.1803243624281632 67 37 37
-0.2206007795771029 -0.1743405330635258 1.1644152791689684 88 7 4
0.1384307522571750 -0.2778479009125157 1.3569641010442453 40 31 22
-0.2289432669904175 0.0907975061694354 1.3081317341369929 157 128 133
-0.2536637033083705 -0.0589202551265285 1.2514913028953856 172 25 35
-0.1893529596320008 -0.1260466211881358 1.3415674134667217 219 195 147
-0.1460046601843738 -0.0393876763799119 1.3928070514868429 87 46 26
-0.1350400425977295 -0.1313331161341982 1.3791962266011912 163 135 111
-0.3091050683127916 0.1640609487454973 1.1761416172175152 221 186 94
-0.2638274070232459 -0.0004482053075853 1.1850056778374802 155 49 51
-0.2923646299189089 0.1250515760646572 1.1504806106647767 153 104 61
-0.2923646299189089 0.1250515760646572 1.1504806106647767 153 104 61
-0.1462156809648745 -0.2456969961192107 1.3024178549518428 165 155 143
-0.2352762156543896 -0.0859199843404840 1.2440248916889738 200 34 46
-0.2564283981699553 -0.0247682679844090 1.1885332443557672 255 252 152
-0.2670699644443997 0.0453836734368627 1.1692649321563213 148 102 86
-0.2472451080078963 -0.0828588846005750 1.2281450066680657 165 30 34
-0.2629994083030920 -0.0183800386600153 1.2082663121579720 255 247 105
-0.2777078598225624 0.0640862914972266 1.2280370670043252 225 74 91
-0.2601194326017702 -0.0256430337958938 1.2079802649026554 251 255 71
-0.2627942641059614 0.0308413088564497 1.1686736189693052 251 255 146
-0.2636570367129150 0.0333598402171526 1.1688703620133156 255 248 114
-0.2179875253776115 -0.0608123767019863 1.2897976309503925 67 60 52
-0.2874413434333390 0.0638026106942506 1.1628757701889978 198 118 93
-0.2729803464347055 -0.1641592641628372 1.1252972506446119 150 1 7
-0.1806195392045350 -0.1371272265072192 1.3482363945236417 53 14 15
-0.1820997935452555 -0.1936971503043842 1.3233312480546742 152 122 94
-0.2643558535385624 0.0364870718567424 1.1682517985542766 204 57 75
-0.2498413912114807 -0.0801573896281712 1.2232691571062435 144 38 48
-0.1864806722854719 -0.2091567262914304 1.3090411861818687 161 144 128
-0.1693029753900505 -0.1669414346979001 1.3437579451182398 136 89 73
-0.2473120792381616 0.0143074308481376 1.1125452627612873 214 136 124
-0.2541675178027588 -0.0658843459765990 1.1947784212650536 216 113 130
-0.1111951228033417 -0.2787915694749687 1.2690724700411584 102 61 39
-0.2102350336435871 -0.1808382624157328 1.2940870617050781 255 203 210
-0.2432411461803787 -0.0132595391593859 1.1414485121162488 217 124 132
-0.1600547600649399 -0.2150667423249631 1.3222442471044715 50 13 0
-0.1766571552382266 -0.2156950148934457 1.3094414620397685 155 140 121
-0.2342848179243963 -0.2699993096555712 1.2350248256204470 80 39 47
0.0536351071020243 -0.1895304066553632 1.3827499201963158 62 43 29
-0.0785054773447877 -0.2507802185675187 1.3197098489967196 120 98 85
-0.1733553565311446 -0.2422391812689006 1.2968709236894980 33 17 17
0.1058967840487943 -0.1886861484187702 1.3797034899572187 109 87 48
0.0914386076683499 -0.1939614610253657 1.3694211833636625 111 97 32
0.0443871199274273 -0.1829005056721377 1.3991228210561790 42 19 3
-0.2225828203879640 -0.2674142907124942 1.2467964941233562 191 136 105
-0.0373756902134070 -0.2728558490306727 1.2930495695897066 26 6 5
-0.0977559187175494 -0.2506278035885770 1.3182409997793980 48 18 10
-0.1277222260151741 -0.2925858909341569 1.3262879476313794 74 63 61
0.0696070348480839 -0.1903262314440421 1.3862355558886059 126 95 41
-0.0780558542190996 -0.2543840701699550 1.3144936300323269 57 22 16
-0.1026186970378731 -0.2714259982515668 1.2928173149541853 47 17 15
0.0879385729457799 -0.1983626330258583 1.3593147522828692 109 87 27
0.0879385729457799 -0.1983626330258583 1.3593147522828692 109 87 27
-0.0628666831085827 -0.2635534950272702 1.3021445541740357 46 7 12
0.1075946317872929 -0.1987038069219987 1.3645636373373007 111 93 29
-0.0487991546487239 -0.2627420460180709 1.3065760269180704 58 27 25
-0.0742827610455089 -0.2771402258714908 1.2837387713268800 55 25 23
-0.0588500910370384 -0.2748302667061637 1.2878529754357992 49 17 22
-0.0797675944413529 -0.2818127452953489 1.2686136035919804 42 0 1
-0.0797675944413529 -0.2818127452953489 1.2686136035919804 42 0 1
-0.1052724754312655 -0.2863724182270089 1.2528847581048714 61 11 4
-0.1052724754312655 -0.2863724182270089 1.2528847581048714 61 11 4
0.1534209789135182 -0.2251632243440990 1.3640691432590206 22 14 12
0.1656872971146849 -0.2579364236225337 1.3611093322529964 52 47 41
-0.3078486107518150 0.1385181689828840 0.9636534088192822 161 179 189
-0.3267084828120360 0.1838933043538170 1.0749765172418329 225 244 222
-0.2970133670574664 0.1643733866345940 1.1950548904306255 225 64 97
-0.2726888021283010 0.0214993578154625 1.2032667061143014 254 253 135
-0.1323871235753725 -0.2712261336586758 1.0781131461490494 58 60 59
-0.2043968791881017 0.3008578929940273 0.9739726823858494 202 42 50
-0.1813972446009805 -0.2329892750097030 1.2968659014476844 33 17 18
-0.1410178787645268 -0.2243366316721483 1.3207567385662551 146 135 105
-0.2710174549228784 0.0201599729192305 1.1975895148813263 255 227 136
-0.2670135774609383 -0.0085319807285391 1.2150509512259717 255 255 179
-0.1482890948493341 -0.2269076021726527 1.3144978864126797 159 152 124
-0.2571410239581600 -0.0375550072022768 1.2215046374889167 253 250 73
0.1374767978432139 -0.2403596326762706 1.3491603659762459 30 22 20
-0.1553115243664789 -0.0254766842357937 1.3849508022010086 95 63 50
-0.2087923303293092 -0.1658015536791068 1.2922754090646231 120 50 61
-0.2658343148038037 -0.0064047207049982 1.2075169365437404 201 105 119
-0.2658521789033352 -0.0059493251022834 1.2075495283556239 201 105 119
-0.1930037739703952 -0.1101242117593109 1.3256947253919182 216 152 127
-0.2619020775072436 0.0217894768652310 1.1694898650579206 239 107 128
-0.3346489387846502 0.2607857443939537 1.0601991255169596 255 146 177
-0.1644620682998267 -0.2379993156596435 1.3026715226367953 31 3 2
-0.1644620682998267 -0.2379993156596435 1.3026715226367953 31 3 2
-0.0521544043913323 -0.1004320063063168 1.4276983414820199 56 25 23
-0.1426566658146493 -0.2333323426329434 1.3152055437931083 60 26 24
-0.1939710991772699 -0.1413422551424612 1.3298640335334868 208 208 172
-0.1370876865697758 -0.2356884574751866 1.3147897266029747 56 22 21
-0.2096575699931887 -0.1677608769434652 1.2996498654263366 192 207 204
-0.1861402075343672 -0.0947707366437163 1.3460895684571743 218 199 159
-0.1540744149195630 -0.2432143931533409 1.3026292164138551 44 21 15
-0.2499026983561067 -0.0473524482037241 1.2189756648785173 235 154 161
-0.2610528068593878 0.0094847831429864 1.1721280597125785 252 255 104
-0.2453961989733690 -0.0535226010410457 1.2196066330048492 165 62 66
-0.2731001446697545 0.0249089862172952 1.2001400721441950 242 115 132
-0.2359177560837981 -0.0949266384016594 1.2241580432687982 255 255 133
-0.1343464903525826 -0.2694443788004573 1.0793381673573146 117 122 92
-0.2808121525465188 0.0638098023535724 1.1921236113118650 190 69 74
-0.2505113846860852 -0.0787337465591011 1.2299174966484281 255 255 170
-0.1328982914524464 -0.2680008260514671 1.0785742585622740 117 122 92
-0.3290537020860188 0.1750270962861205 1.0662940976043580 254 255 245
-0.1595920575294565 -0.2481625993746220 1.2955477853029602 129 117 101
-0.1263295127406361 -0.2410260958670959 1.3142410421357440 75 36 37
-0.1573321912673830 -0.2494029834473074 1.2964695252966620 59 24 28
-0.2759271769512917 0.0371357693087189 1.2017768518664342 255 255 125
-0.2709023065234015 0.0515835318565425 1.1728961650216880 231 115 128
-0.1557499196548188 -0.2523837700111339 1.2956095467264401 178 165 149
-0.2170789761307103 -0.2258979249081862 1.2790568715148456 37 2 6
-0.1074829472364707 -0.2439949249350497 1.3198638756117309 72 33 36
-0.0940076691051717 -0.2399369135384423 1.3242017520380016 153 137 122
-0.1159498502921504 -0.2471647044098490 1.3131902840832319 71 40 38
-0.1471388537400532 -0.2552023955580219 1.2951245136795211 60 27 20
-0.1471388537400532 -0.2552023955580219 1.2951245136795211 60 27 20
-0.3061306247333056 0.1345753415715659 1.1472393048086857 217 169 69
-0.2528427351071412 -0.0296476679975391 1.1808514585995682 255 243 106
-0.2931191710895392 0.1290779678936839 1.1570992203810053 246 230 135
-0.1444221617193611 -0.2573565726493403 1.2934905000088670 127 109 99
-0.2304023844991879 0.1216985383032975 0.9687014885390158 87 57 47
-0.1388139430617294 -0.0803289984578133 1.3914424467932038 119 70 53
-0.1150672202847136 -0.2397630752413565 1.3189388414789802 167 154 138
-0.1216362253668019 -0.2446885580722234 1.3137027473980827 70 41 35
-0.2460964478802367 -0.0423913591907921 1.1884023982492413 254 255 147
-0.0918757709583445 -0.2488619881366703 1.3160695728200369 171 153 133
-0.0890075058274125 -0.2428878163542095 1.3265752059744245 83 49 39
-0.1035083440170573 -0.2449538259395866 1.3178476038240778 168 151 135
0.0578470139440656 -0.1929239322246785 1.3729003820872134 26 17 2
0.0578470139440656 -0.1929239322246785 1.3729003820872134 26 17 2
-0.0851011424017647 -0.2536851930754683 1.3158781669575064 81 38 32
-0.0755110715066629 -0.2559916655080899 1.3123179691752960 167 151 128
-0.1972194092261393 -0.2123964365641594 1.3028695126037722 41 22 26
-0.2525669579213327 -0.3000457992308260 1.1981691634331797 89 59 49
0.1043759228290746 -0.1922786460266397 1.3766138523016027 26 13 5
0.0735959004916840 -0.2018678315167491 1.3458173022786277 149 117 44
-0.0539673269258927 -0.2645660887372160 1.3058835641446231 161 140 123
-0.0640544696315117 -0.2685926878005676 1.2964939997880052 145 119 102
0.2221282934174003 -0.1963696446543987 1.2789335465891902 23 17 17
-0.1276149906948477 -0.2508950762630697 1.3041285847743185 152 134 114
-0.2440930750634375 -0.2481690871948375 1.2344985637589116 190 180 127
-0.1074205054285878 -0.0069413806433792 1.4142251886144304 67 37 35
-0.2983875392653580 0.1476921382916898 1.1756594397320199 233 66 92
-0.1953316508536108 -0.2591570691719138 1.2714607351265255 43 26 34
-0.2944259658162179 -0.2412416451158344 1.1618208488824968 244 65 104
-0.2913794696454700 0.0822948346523988 1.1634556411696548 242 117 131
-0.2636713765491960 -0.3215072000050467 1.0554343169884635 174 154 163
-0.3242232497276359 0.1597409157361057 0.9504929066682611 89 77 89
-0.1873860777658932 -0.1290990577479015 1.3421239683413051 214 204 169
-0.2911969385329448 0.1371310116313336 0.9555354169442726 255 255 251
-0.1582896428759358 -0.3311854356955623 1.2028694965541240 80 63 37
-0.1818049994920486 -0.2484704053496031 1.2873501398243670 112 99 90
-0.1843282303688387 -0.2518983316596012 1.2823409495607487 36 23 30
-0.2702007161071490 0.0176954642283783 1.1912567681696726 254 120 157
0.0653624523558590 -0.1867374290968999 1.3893154400186989 31 20 18
-0.2803984178336400 0.0591858328370075 1.0727543921318208 169 178 195
-0.2503316765934361 0.0290232422313082 1.0901488582107428 242 78 105
-0.0094532151056177 -0.1895689985335174 1.3719661019204292 60 21 22
-0.2410114045172051 -0.0371682666843931 1.2816702034223160 82 72 80
-0.0024522440495170 -0.1970056820552618 1.3623430813174648 167 113 67
-0.2654374224161684 0.1488725069736894 1.2574687649611209 252 255 255
-0.2888741952676983 -0.2574348962255541 1.1654107048217821 223 128 160
-0.2896899813926641 0.1423242787521980 1.1769877340883357 217 179 80
-0.2891693773845332 0.1287952566818278 1.1649485315875809 242 88 116
-0.2889801813219964 -0.3056747671184415 1.0514808048436237 186 173 182
-0.2885674868488902 0.1309996690224911 1.1653462369149861 230 44 68
-0.2834784662484354 0.1395193968726367 0.9468750636181631 255 255 255
0.0446305812263423 -0.1272432509056012 1.4461684654388154 60 36 34
0.0885340069484250 -0.0302422922889728 1.4871521533338083 149 114 56
-0.1531346444313265 -0.1561885280288124 1.3565622768131584 177 158 128
0.0400552669962530 -0.1015638658481658 1.4615075819509735 44 30 30
-0.2807098907794198 0.0629391216583663 1.1775077014877133 226 32 59
-0.2692991148395623 0.0086964683902715 1.2059722151048089 251 235 87
-0.2077737366959820 -0.1140567279457629 1.2852927611913998 143 156 128
-0.1688702274357712 -0.1721428789285792 1.3436670571814922 88 45 38
0.0128764448694711 -0.0817972012796801 1.4659182320188944 117 78 49
-0.2755964750487472 0.0349660745200594 1.1983934730265093 255 247 85
-0.2700135552618097 0.0129364549848806 1.2018502481634914 187 97 97
-0.2874829098235888 0.0763340624761443 1.1868185647425544 224 122 108
-0.2874829098235888 0.0763340624761443 1.1868185647425544 224 122 108
-0.2508807674900484 -0.0350746849690040 1.1873987168297029 177 63 62
-0.0713222495135767 -0.2520245139711074 1.3174865688026069 173 144 130
-0.2661730846779106 -0.0118772148473232 1.2158755922702447 174 136 115
-0.2647804255995450 -0.0144817831106243 1.2148753828703913 255 253 93
-0.1439255847362526 -0.2340112987076070 1.0754559308040399 246 255 250
-0.0563710090387376 -0.2632955728925112 1.3008571939033358 71 43 31
0.0465938870172527 -0.2222484378433148 1.1558588828642029 34 36 12
-0.2606636763800518 -0.3198228938273004 1.0651072387860541 3 1 2
-0.1382329360971177 -0.2488702106712095 1.0805381743827636 171 181 146
0.1838753216299925 -0.1448774853748259 1.1673492709660673 220 181 62
-0.2892694403175071 0.0701652632902423 1.1591134660172990 251 244 172
-0.3399220277204950 0.1171342869562156 1.0221223233795558 154 129 135
0.0769529609815488 -0.1723551311035187 1.4188289184678715 30 23 4
-0.2931216591292155 0.1477193464759668 1.1799367471477262 255 234 164
-0.0924325320015653 -0.2415172219037894 1.3257335310247647 121 80 48
-0.2508180467388613 -0.0445017384272257 1.2169970601478648 255 242 83
-0.3044014348326825 -0.2256027874518931 1.1576459478869521 227 74 105
-0.2856819249203425 0.0684831324608245 1.0611758217503273 168 153 160
-0.2899242571331012 0.0777900076129934 1.1767798774148448 206 55 74
-0.2390553160471866 -0.0917333878371464 1.2227656550252153 181 34 52
-0.3209156655307865 0.1706960342374262 1.0678548470003784 204 176 111
-0.2739938592706635 0.0325558174744753 1.1944136784573769 252 252 78
-0.3019736861480673 0.1314024460238616 1.1456479319362587 209 78 94
-0.2994636657947840 0.1307701228524401 1.1485264391273251 254 214 142
-0.0833945915813670 -0.2075771186132276 1.3562191461354094 110 61 44
-0.0833945915813670 -0.2075771186132276 1.3562191461354094 110 61 44
-0.3026970549782696 0.1534569087166895 1.0669871935903164 229 240 210
-0.3030044910507040 -0.2191908573908956 1.1619898574232452 192 46 65
0.1748247375280741 -0.1705918008402842 1.1972100547892681 230 156 69
-0.1888903150202826 -0.1008342362094539 1.3414916606191816 235 217 169
-0.2897451960197814 0.1425256717247625 1.1771056117940111 195 146 80
-0.2770780856970566 0.0382422323161836 1.2006128340517195 255 231 125
0.0439890567512198 -0.1286164798359752 1.4460107257984753 101 59 45
0.1835815078449220 -0.1907972751856496 1.2387196109589502 123 99 51
-0.3032629783175711 0.1690004596236618 1.1868957313753403 219 35 59
-0.1550782582910558 -0.1593521036609144 1.3560304543208941 150 128 104
-0.2599624357434533 -0.2454640056965851 1.1517347074294242 75 39 53
-0.2671229635744304 0.0480511288349176 1.1716366509374005 246 223 91
-0.0710693137545550 -0.2363664060243707 1.3382767827885076 159 131 81
0.0848926718184659 -0.1495459318817429 1.4494553745596486 50 40 39
-0.2498395202307074 0.1234888512076306 0.9675364354162068 162 26 38
-0.3080754451115917 0.1381365295531159 0.9633903791173182 161 175 188
-0.1539665816222379 -0.2214359211244988 1.1036984375414163 75 80 48
-0.1054357056023923 -0.2988167811778806 1.1265227519847876 100 83 53
0.1719301252929213 -0.1867811318452087 1.2212854776505062 183 83 57
-0.3102666592970478 0.1004803456625002 1.0347569659198599 125 89 89
-0.1542136676517171 -0.2219406785208180 1.1030315342858448 125 135 85
-0.0910151912408373 -0.2341100716263967 1.0793745326420461 45 24 7
0.0484968208838365 -0.1032327539212174 1.0700900217460758 215 220 156
0.0605836349175889 -0.1109005842286264 1.0773193700754204 224 229 163
0.0451491883600906 -0.2139633467190868 1.1487083764626551 37 41 8
-0.0811221189193767 -0.2901785197172895 1.1310465507960696 151 140 74
0.0057395765770120 -0.0692003954812675 1.0448153455605729 224 231 164
-0.0296365954709704 -0.2748104604953642 1.1592721141567446 156 133 65
0.0473780815151523 -0.2137897731966287 1.1493576269931998 211 215 130
0.0640294591970399 -0.1109793203960499 1.0778387463816230 219 225 151
-0.0587090039905399 -0.2814028535609370 1.1391559235098856 128 104 60
0.1725697055406691 -0.1804866529904479 1.2115629637008394 204 140 68
0.0003686692087470 -0.0614375720101705 1.0401872599173878 230 235 169
-0.0180556521919078 -0.0501091809705401 1.0281987358177056 177 158 81
-0.0851707295189141 -0.2928881679190816 1.1336802802982229 24 6 0
-0.0755322116713033 -0.2899653318636277 1.1382884414398970 28 10 0
0.0910080870595637 -0.1960768111310296 1.2304750060258987 61 11 0
0.1076789227513389 -0.1619288365356633 1.1776948530862608 28 9 2
0.1046477688848652 -0.1676718359736505 1.1807183569091493 67 44 26
0.0911024123048607 -0.1958447860182920 1.2311242843554986 61 11 0
-0.0209362746076078 -0.2215619099868037 1.1121863735902282 186 171 90
-0.0638359640696270 -0.2818052417663006 1.1358136078989778 71 64 38
0.1088107337790238 -0.1656247150565079 1.1815230314672920 116 81 41
-0.0912588629628638 -0.2931015515978272 1.1275781445772242 7 3 0
-0.0730865643048258 -0.2849305663405048 1.1295479030088647 166 149 79
0.0399267387806701 -0.2094027366324862 1.1457983312135012 201 208 128
0.0873287905128423 -0.1926739602521145 1.2262105218472446 22 10 0
-0.1176555566718940 -0.2993231645478788 1.1119294495313774 17 2 0
0.0914181056937679 -0.1936827382997255 1.2263381674109217 144 119 63
-0.0921338317501620 -0.2936082025129780 1.1249334750792472 176 165 109
-0.0817319188469249 -0.2899824325201655 1.1304947345281098 85 70 49
0.0474642655459917 -0.2100378284057381 1.1477335896040997 209 214 148
-0.0529816683742661 -0.2815176127745883 1.1459539896772903 18 9 0
-0.0431313165815068 -0.2733132806364915 1.1415341182930117 119 101 53
-0.0531190352855311 -0.2811702441891568 1.1465443023530810 18 9 0
0.0812018277260084 -0.1066670825863177 1.0791304660393410 115 113 74
-0.0991600662978929 -0.2930333478984454 1.1201242377052221 154 134 73
0.1965696719449732 -0.1840334099219378 1.2230336209991883 53 32 27
0.1807139570590033 -0.1814989538571237 1.2101181396395522 133 116 70
-0.1127060873126506 -0.2284421630111022 1.0609206115218972 108 90 54
-0.0767756811802742 -0.2872522309521666 1.1315986292250819 111 92 59
0.1049650503488157 -0.1922792650287765 1.2151519465680598 119 81 44
-0.0854379442775767 -0.2895171958952999 1.1263471316105085 48 28 4
-0.0853497671272413 -0.2894399110729157 1.1265527357731573 55 41 15
0.1724801586704129 -0.1790675521023333 1.2084875895150620 178 30 30
-0.0516620900535708 -0.2713802183975765 1.1305037579536164 106 92 47
0.1672014788297305 -0.1767104744982666 1.2054469647867072 241 140 88
-0.1377763788515848 -0.2053155535796646 1.0497651609543182 234 253 234
0.0435589745406241 -0.1978477603160880 1.1390165171049322 204 208 131
0.0242999429714677 -0.0612104687552988 1.0431384829118395 214 219 153
0.1682453992157442 -0.1727346944973749 1.2015267685565167 184 32 31
0.0563822264448903 -0.2108812666706757 1.1495126645389844 204 210 138
0.0375312445363529 -0.2452511796610951 1.1751275645785078 162 145 67
0.0582984117830519 -0.2050506966077986 1.1459483957189751 38 39 5
-0.0907186810514067 -0.2908147120900264 1.1203176775099823 92 78 49
0.1484941867986753 -0.1584795856033257 1.1906038348497061 155 104 57
0.0460926707588275 -0.1953683308248789 1.1384036995654661 49 46 37
-0.0810748610664425 -0.2864943113679559 1.1266076456867398 16 9 1
0.1034339124758646 -0.1884010021582272 1.2089765517517734 168 122 70
-0.0810603858147894 -0.2871292798193399 1.1261941009852066 38 25 16
-0.0301665781645559 -0.2720565342345392 1.1528346977621051 69 64 42
0.0621807722347721 -0.2102767666930008 1.1505725108741167 168 169 91
0.1698246014551647 -0.1760392516210938 1.2044689906684098 185 27 24
-0.0705314791719552 -0.2840486929611409 1.1315505200344287 11 6 2
0.1250147417564113 -0.1157865373482883 1.0953425592925428 172 150 90
-0.0706470009155476 -0.2836323704943160 1.1322333707650636 11 6 2
0.0429924096670640 -0.1927053313696721 1.1360342558582985 50 44 12
0.0402462042447682 -0.1981014139107319 1.1387743529933498 192 195 106
0.0208505283009294 -0.0479058841443958 1.0358879100294114 213 217 141
-0.0791209177313344 -0.2855790932801969 1.1260101557694844 122 101 56
0.0515575977372806 -0.1957023564146940 1.1389534830055497 173 181 132
0.0365156793735835 -0.1261575911571451 1.0882903250191971 44 46 9
-0.1127499031864871 -0.2160784788405984 1.0558275308955589 72 52 19
0.0361872075382487 -0.1260058883365803 1.0883148770841438 57 61 24
-0.0286720645964808 -0.2715686492269522 1.1535954229466159 13 6 0
-0.0599387268484231 -0.1955290524798637 1.0819862474037818 27 23 11
0.0848349819710206 -0.0793288474636128 1.0686221031809140 215 214 149
0.0793929813965056 -0.1522593706021920 1.1117143597042680 233 242 177
0.1481036216374555 -0.1521698530097836 1.1844422353707935 109 40 9
0.1477483066090170 -0.1527156480886379 1.1844901815078805 73 10 5
-0.0749157228569651 -0.2835898455465977 1.1277618613940747 24 14 5
-0.0744073038663775 -0.2832091215151086 1.1277582392041257 10 11 0
-0.0566730527850682 -0.2789538365892189 1.1373795238463773 55 43 21
-0.0430276965718543 -0.1885709198521994 1.0877994589153521 182 191 136
-0.0572506318155231 -0.1999494216632343 1.0851541000873002 25 20 0
0.1755417438148019 -0.1743248837221226 1.2030763868334320 178 27 18
-0.0904315496025024 -0.2882120181696480 1.1189065852239448 94 80 43
0.0413974134134395 -0.1857535022568545 1.1297083955380010 188 183 117
0.0572090216015779 -0.2022927553985032 1.1435125044122343 224 230 160
0.0722813020836934 -0.1813985172901803 1.4078566425953065 92 68 40
0.0303907551407831 -0.1201289485004959 1.0823487637685361 66 77 35
