ply
format ascii 1.0
element vertex 693
property double x
property double y
property double z
property uchar red
property uchar green
property uchar blue
end_header
-0.0642318809510897 0.0206472002025099 1.1342933144355298 106 92 31
0.1332187884842153 0.0331971470524632 1.2159323035348508 190 163 94
0.3233067972830821 0.0276079524031678 1.1823594718803481 150 123 106
0.2180134028533479 -0.3740695358595665 1.3811969273483882 142 134 132
0.3438516904823766 0.0232123334320424 1.1525018098448818 203 187 174
0.2892499841422462 -0.0694274466176450 1.2469465776271758 165 132 117
0.0695030125394418 -0.4192836899749362 1.5760711090489039 190 159 139
0.2004114682244250 0.4548289811188361 1.3383043160189092 233 216 208
-0.0630488693618047 -0.0726537889828438 1.1534746639842768 151 144 66
-0.1287845741949590 0.0191218782918074 1.1162939136052932 250 254 203
0.4200492976932990 0.2950042205049339 1.0359955075787366 194 189 183
0.3840874449622158 0.0149987876567820 1.0954270764262812 199 183 170
0.2146116948567409 0.3323405374372800 1.3259502917515431 114 90 78
0.0845672121685781 0.5522367899320780 1.5019065048803977 200 177 159
-0.0907998493024650 -0.0726675001347058 1.1323861097313184 123 107 48
0.2178934204852753 -0.3613704755669985 1.3849085135572550 234 229 226
0.2178934204852753 -0.3613704755669985 1.3849085135572550 234 229 226
0.3055762953273256 -0.0655622155023097 1.2232270297900181 51 49 52
-0.0806645303880100 0.0239114599314517 1.1234755725309034 201 195 119
-0.0259682204816500 0.0295295044962963 1.1591971728066019 215 218 149
0.2766076527888874 -0.0695608764112141 1.2590908757984862 132 96 82
0.0347147823837610 -0.4243931949517202 1.6363732718638402 205 191 182
0.2832895681044129 -0.0636202021140215 1.2525659082501994 145 117 103
0.2109214585104486 0.4695456715396433 1.3203283361854994 199 174 152
0.2760856050362700 -0.0696503761998538 1.2570848307747402 177 147 136
-0.0111748940751050 0.0307922604633728 1.1620914454925193 229 235 171
0.2975534443688264 -0.3234003389735100 1.2459894323893699 134 102 81
0.2581877948736942 -0.0616542569413734 1.2791738582038372 230 222 220
0.3230199760611230 0.0325303717389559 1.1818403999820342 149 126 110
0.2581877948736942 -0.0616542569413734 1.2791738582038372 230 222 220
-0.0529620318681940 0.0287408831771175 1.1443254308967183 142 125 45
-0.1671195461384505 0.2916683020180272 1.1978315611791048 93 101 44
0.2702834230406193 -0.0667852329776728 1.2741149751757350 142 109 94
0.3018339083503702 -0.3254048975563633 1.2379558330438576 150 125 105
-0.0514856225966850 -0.0721576676505230 1.1620618751782688 196 188 113
0.2767693231195874 -0.0583174537428523 1.2445692716897703 88 77 73
0.3730416885418305 -0.3028097283264554 1.1354079457181856 138 120 108
0.3212087503860483 0.2758621398569064 1.1650386403770638 197 180 170
0.0080885312239238 -0.4130179287009536 1.7007218187061390 220 216 213
0.2978176291659750 0.0417247883987169 1.2177450787515804 129 101 77
0.2361530650222127 -0.3497582898434167 1.3523623439463046 133 102 84
0.1047813741026532 -0.0543134441219527 1.2733143280631720 146 109 57
-0.0874696813942845 0.3260045878812220 1.2537579040723423 176 168 157
0.3923218608142173 0.2484848500130759 1.0835848073710477 136 113 99
0.0344879026967672 -0.4107992108727408 1.6325666097271974 210 199 193
0.1203437658533150 0.4201486448826356 1.4682160683455785 180 165 158
0.4172311535578776 0.2379784915161202 1.0508061801065325 134 116 102
0.0592637574714991 -0.4010740873992373 1.5975190384524613 207 190 180
-1.7342758071737214 -1.3350214605720749 3.6341408633009591 20 36 35
0.2336999980112169 0.3490706029431292 1.2931104448038029 195 168 151
0.2694167402011279 -0.0500395112634383 1.2738988896275134 131 99 78
-1.7342758071737214 -1.3350214605720749 3.6341408633009591 20 36 35
0.2581505347534506 0.0543916822887825 1.2694953033364060 165 134 116
0.1708369758331011 -0.3389272647116982 1.4295490865023872 118 82 58
0.2573543305937848 0.0539126675330316 1.2663798983545389 165 134 116
-0.0879621475766015 -0.0660797584884207 1.1333803657606609 146 129 59
-0.1170950105298997 0.0311014494069703 1.1169843369463546 240 252 186
0.2637213862960597 -0.0542916294151042 1.2671179046742551 209 191 179
-0.0412176593848109 0.0382576864256598 1.1507095923516435 158 148 86
0.2667744799463240 -0.3268685725270790 1.2929307415179447 116 97 90
0.2813865516034025 -0.3214583561878736 1.2724091785890510 219 211 209
-0.1017524346633770 -0.0541266147195036 1.1197638865849151 178 179 113
0.2377980323799483 -0.3312193311443711 1.3282607503801456 119 90 86
0.3286922751934754 -0.0476945136549630 1.1858208955632223 129 100 82
0.1848090449900007 -0.3178890098346282 1.4075551364297190 72 53 39
0.0845119688815815 -0.3429822582969352 1.5483293132137330 165 145 136
0.3580604598962827 -0.2962132655909205 1.1608819349333248 118 94 82
0.0154067638347303 0.0426724951599688 1.1659430940220261 217 225 152
0.2175088285051896 0.3872466869231842 1.3100026484850860 191 165 148
0.3562160729824616 -0.2893571566117843 1.1579342137221820 111 83 71
-0.1285386590736047 0.0352056852916215 1.1177416554856632 209 216 172
0.3574873836527555 -0.2691538811774439 1.1618123174125166 127 122 128
0.2576910334333703 0.0591247325358076 1.2688004450465886 203 172 154
0.2576910334333703 0.0591247325358076 1.2688004450465886 203 172 154
0.1976710939451967 -0.3343638157646575 1.3966565320502573 134 107 90
-0.0704920155414371 0.0374118162670553 1.1278607438770329 165 158 80
-0.0622712915476933 -0.0447631984148871 1.1500463987124572 134 114 53
-0.0708440829376232 0.0373442387169252 1.1273034177389234 183 179 90
0.2181305669111769 0.3946559425791111 1.3137043950734033 206 179 162
-0.1311056383263074 0.0370176974765076 1.1185981744398370 255 254 221
0.3138855261247799 -0.2727392310185525 1.2116633160004389 212 207 204
0.2458025073770409 0.0650239179649024 1.2878506426286145 167 136 118
-0.0632103153069847 -0.0555937879908494 1.1495084564500662 132 114 48
-0.2460472832264781 -0.0384066091438647 1.2204942425337433 167 72 6
0.1906168663609152 -0.3305555203580868 1.4025555005466050 254 238 238
0.1301043453640663 0.0546703939771447 1.2191095198991471 183 146 78
0.1301283318284593 0.0546619860409788 1.2188751225278704 183 146 78
-1.7837811721155643 -1.2540330320635846 3.6559750212460744 149 151 137
0.1876018557002826 -0.3024077929072104 1.4114630329167177 141 126 121
0.1876018557002826 -0.3024077929072104 1.4114630329167177 141 126 121
0.2547886161907039 -0.2883837293465831 1.3319336146360510 235 236 231
0.0866381667172696 0.5044536820056378 1.5019396823401350 209 190 175
0.2437643188494857 -0.3149938123815409 1.3356978511270912 119 93 78
0.3299979759276663 0.0466173174407691 1.1684369881921974 142 119 105
0.3200014902928895 -0.0379285853209112 1.1920763596038972 184 161 143
0.0735222358967903 -0.3565928241334514 1.5633556629164598 162 135 116
0.1865018899538463 -0.3256584046920844 1.4068187573792474 178 159 144
0.2110160706247662 0.4177449433253890 1.3201697047719125 181 159 146
-0.2685985757044577 0.0654508023159517 1.2433253868593070 198 102 113
0.2905195893197813 0.0638579285072236 1.2274200975571536 135 98 79
0.2658915918498435 -0.2761885872095195 1.2881885227983987 195 172 154
0.2080598369923597 -0.2889861639772940 1.3670497825492849 127 126 124
0.3633256195540948 0.0448477222802294 1.1240135342785478 166 154 142
0.2907186622098880 -0.2962463942565473 1.2716644383031659 192 190 193
0.2742847371643644 0.0665469631811556 1.2394052016407269 147 114 95
0.2741142464367769 0.0662148284901452 1.2384895122314445 147 114 95
0.2374739218587699 -0.2785009173592595 1.3287929827921061 137 105 84
0.0223306894809996 0.0555490683896585 1.1657830032836662 203 205 168
0.0222783310061992 0.0556366305538879 1.1659737559844163 203 205 168
0.3524060008137061 -0.2753454037801876 1.1700966967178410 170 148 134
0.4129343004469820 0.2927202197980893 1.0455335177342964 178 174 165
0.3252266906305820 0.0557666361090073 1.1724566938322012 196 182 169
-0.0723777480350291 -0.0503394196300484 1.1405750726574095 34 18 0
0.4130378498655164 0.2920161956855922 1.0453152888537640 178 174 165
0.3064803131924536 -0.2594238158596215 1.2284698065218598 129 103 86
0.1250498627405593 -0.3364859244956964 1.5021537087545658 145 145 143
0.1312486791635707 0.0677336758751598 1.2236012109687529 198 97 77
0.1890853024230880 -0.3164972748626557 1.3995278917821732 183 172 166
0.3616895531407041 -0.2451668549602296 1.1446069959743250 86 69 62
0.1696764726538708 -0.3215125611265877 1.4357132859886359 102 80 67
-0.0732945293783144 0.0518207487967626 1.1231837320519009 23 21 0
0.1244693412826808 -0.3307144968933722 1.5009367066397679 162 156 158
0.1619021129759276 -0.3192744005899883 1.4486965888294621 159 133 120
-0.1700744469251176 -0.0460617338277458 1.1239919296593370 255 255 255
0.2312072673414026 0.0867626875425722 1.3154414845270783 84 69 64
0.1822581630209180 -0.4773834637457589 1.4394404265382938 241 228 222
0.2330126516230639 -0.2724333968359599 1.3354680322303301 238 229 230
0.0810905833960050 0.5571676523605797 1.5201527861220554 154 127 108
-0.1749785059975825 -0.0426383382809715 1.1298588303699804 130 147 139
0.2767187044412202 0.0741383473897341 1.2503857678564017 191 153 130
0.3646698358771505 -0.2624143294678046 1.1444265226144867 124 97 76
-0.1983428360239558 -0.1638090062058766 1.0362057057306107 88 32 17
0.4115882600904811 0.3010694153882858 1.0441655641687591 192 184 173
0.2906170189666994 0.0699073991645031 1.2302045885401418 116 80 58
0.0925673663861237 -0.5140674318173883 1.5623245118557429 193 170 152
0.3127551955501893 0.0646457784473798 1.1959038432231899 167 158 153
-1.8499411144975346 -1.1549803020994198 3.5662135864245452 14 21 14
0.2788138679471658 -0.2598565437698470 1.2697290133034269 150 123 112
0.2848301530967160 -0.0303664237159369 1.2494843445217545 128 95 76
0.2843174945582748 -0.0306625472306552 1.2455577759915242 128 95 76
0.2864379064723950 -0.2579688559261880 1.2636075258008306 108 77 59
0.2967588711711139 0.0751701449464046 1.2120140271265465 182 174 171
-0.1584219611607457 -0.0418953439193730 1.1176611229923907 253 255 254
0.0787544961479181 0.5783519434756617 1.5130534270299594 162 139 125
-0.2231093160412242 0.0685620767116915 1.1633441637860942 139 126 136
0.4287394857521552 -0.1544561973516556 1.0132528776851841 239 255 255
0.2889766989409315 -0.2716287332175904 1.2565421095317326 165 138 129
0.2750207701122471 0.0842176284226021 1.2472406118407247 121 80 60
0.0312765605390016 0.0709628184517465 1.1690132471879788 34 32 11
0.2780957570039272 -0.2739563035943317 1.2773194434341462 246 245 251
0.2780957570039272 -0.2739563035943317 1.2773194434341462 246 245 251
0.1012438113531711 0.5697106946512737 1.4791567657102200 143 114 100
-1.8464485235350072 -1.1464058839216675 3.5805702024552022 119 118 90
0.0784343865900089 0.5872101053022556 1.5062926367402119 154 127 108
0.0212731170200165 0.0732793391368897 1.1640858367367091 200 200 174
0.2274707703053116 -0.2832378879875109 1.3440491737276228 230 224 226
-0.2020519617056211 -0.1564126088374596 1.0493193806664189 72 32 24
-0.1535081382073787 -0.2679056570228537 1.2311889375423144 206 177 169
0.0973828173987348 -0.2934162083579754 1.5357148792108926 174 145 129
0.1353873148322027 0.5588209175483376 1.4283038003077362 197 180 170
0.2846162554787248 0.0895767641035107 1.2345089523861961 155 124 104
0.2842797901948537 0.0895447917737791 1.2343356876279743 155 124 104
-0.1695857665062635 -0.0368805644501588 1.1234114417739018 255 254 255
0.1539196098951157 -0.2921764995366329 1.4583488981867230 160 158 159
0.0824158715896148 -0.2948281854436760 1.5499337054483138 196 185 181
0.0672983023147099 -0.5990850722405352 1.6231532100483665 184 166 152
-0.2107510462717340 0.0674980227580260 1.1002909966670877 205 190 135
0.3152723984908568 -0.2356245226675517 1.2130110599713002 148 122 109
0.2872210536553338 0.1007542370425091 1.2288160904192109 107 72 50
0.2191923286947949 -0.4369853328560712 1.3682321977949623 154 127 108
-0.1955880077980944 0.0912193720993615 1.1577774617994898 158 161 176
0.2650041683948871 -0.1551424141434780 1.2817027285415896 139 103 87
-0.0690076875869339 -0.6217036873422669 1.7550533911355628 131 98 79
0.3146796612297680 -0.2303094769491365 1.2131556900717133 153 124 108
0.2475931794493061 0.1228249247094064 1.2811146287060959 149 117 104
0.2318542647931660 -0.2599650194551802 1.3399515562560764 89 91 90
-0.1551474277927102 -0.1509300157457232 1.1555592092545421 18 25 7
0.3083868835017164 -0.2296153379781289 1.2306524891143833 118 108 109
0.2613746960144940 0.1198812372266714 1.2578626931682504 141 109 88
0.3229047781570753 -0.2360990898123905 1.2028961596774350 95 62 53
0.3534769778996001 -0.2295948302684119 1.1599201219059918 200 178 167
0.2537405192646995 0.1256304017338935 1.2713727279003531 175 142 125
0.3460649374641440 -0.2314246013367132 1.1718276932688927 145 116 98
0.3629985459990266 -0.1433471873613367 1.1372255274094529 176 164 150
-0.2724500108880661 0.1101382888314891 1.1920319654625764 193 48 65
0.3347523624461653 -0.2213075859326938 1.1857562171831084 149 131 119
0.0997368925304514 -0.2783918333726014 1.5272050061856191 202 190 174
0.1292020697904844 -0.4672929806558904 1.5037436982282311 148 126 115
0.1482412686966236 -0.2686428019106373 1.4567790783644876 131 100 82
0.2342780336104653 -0.2368169075665755 1.3301640389381093 192 171 150
0.2304688810007751 -0.2519423833197954 1.3343431008159627 102 102 104
-0.1185525279140669 0.0959539382759368 1.1209310378543804 89 76 94
-0.1536370793868855 -0.0203302963314263 1.1173297948584302 64 77 67
0.3645227545133046 -0.3673704251014973 1.1592551452386068 133 104 90
0.1997487806241255 -0.1484781746895016 1.3686795177127051 90 73 65
0.2190104933137366 -0.1467417344250198 1.3476387550443589 164 147 131
0.2716312808542137 -0.2249714984178725 1.2826822595627794 138 109 95
0.2716312808542137 -0.2249714984178725 1.2826822595627794 138 109 95
0.2239400750018992 -0.2284295881104291 1.3459628320634975 137 107 96
0.2550049839460951 -0.1441927659463876 1.2999522224574347 113 93 84
0.1724436609285088 -0.2364964349097448 1.4225955162477688 162 135 124
0.2849499211204815 -0.1430980276101222 1.2550719341260714 157 122 102
-0.1408086104712937 -0.1398055676252899 1.1178733906559304 36 52 25
-0.1599145522974579 0.1106184902125076 1.1487959077372409 116 130 130
0.1081258215582103 -0.5194463395311409 1.5304494948532867 205 187 173
0.3524749193073325 -0.2033803703811461 1.1579427858495994 173 160 154
0.2154872885035473 -0.1361986595627009 1.3506111041294606 136 107 93
0.2205895990142015 -0.4785525145546057 1.4070982837224479 198 188 178
0.3383977732747545 -0.2008612389534844 1.1770531131578419 98 67 47
0.0941891743445077 -0.0332061081961995 1.2161141966700575 159 135 61
-0.1498882256845974 -0.0113117947590395 1.1181887405841917 247 254 247
0.2785860610149450 0.1376632855664994 1.2405923505765237 179 151 137
-1.8596073190992186 -1.1781954756685054 3.5368112598603298 53 64 47
0.2970097907293663 -0.2038661782220818 1.2363365815677878 135 99 83
0.2454115222800877 0.1517236041198879 1.2813489286144608 154 120 108
0.0603071072139335 -0.0010407113207760 1.1889152868209458 211 214 143
0.1563242984654001 -0.4887341935338117 1.4535334867169827 145 113 90
0.2027311832881870 -0.4668700093649935 1.3896596741212601 154 124 96
0.1694694327122502 -0.4338334705555105 1.4389233435818214 146 114 93
0.1398117070120549 0.1520638770191096 1.2594844459699919 17 3 0
0.3028993612986708 -0.2029034929802974 1.2346847555085863 136 107 93
0.1315557695163609 -0.5000118778976760 1.5002725212280634 157 132 112
0.3294715824189311 0.1245600960581453 1.1634845201805568 181 157 147
0.2988881227008277 -0.0271993675384005 1.2215045374399303 135 103 88
-1.8408551514275475 -0.9442753512895283 3.2287575299712299 169 127 128
-0.1621181200894391 -0.0068716298584903 1.1246791677096575 255 255 255
0.2314892088037568 -0.2101877809700943 1.3317811739602381 92 64 52
-0.1710675673902873 -0.0324715410692961 1.1271366406721168 255 255 255
0.1507902140915692 -0.2230272994354593 1.4302222812778533 18 3 6
0.3081088824400809 -0.3758958164970084 1.2353165153872794 185 175 165
-0.0627671960903361 -0.0295233330612063 1.1441378981760899 151 130 67
-0.1758060730786193 -0.0301320152254033 1.1313773878437932 214 230 229
0.2735329615360831 -0.1899513026877022 1.2748386263230380 137 104 85
0.3003926835815869 0.0128373845322421 1.2197338899968673 129 96 79
0.2671781883177941 -0.1883446121245858 1.2793562764388033 123 97 80
0.2673402355869265 -0.1883952538026148 1.2802687607782832 144 111 92
0.3125997298472749 -0.1832285803965363 1.2193713867575273 163 132 114
-0.1586971190577852 -0.0242566002729053 1.1188909283739812 255 255 255
0.0752688175224438 -0.0140840508644877 1.1971997726088464 60 59 28
0.2720679046987967 -0.1779641151977816 1.2731576916451282 115 78 60
0.2731084587978837 -0.1792962780560220 1.2754793490899563 102 70 55
0.3000752287763280 0.0191640453978657 1.2199990820257638 127 94 79
-0.1576388878468451 0.0084160996232110 1.1235173529777007 255 220 133
0.3640497015028506 -0.1678904308032304 1.1439598085828491 91 90 88
-0.1575540780471677 0.0086272374971188 1.1240805012365409 255 220 133
-1.8393994445739901 -0.9744209894496516 3.6036162571545116 141 147 135
-0.0905163014519354 -0.1726376616231061 1.1560843486101118 138 109 49
-1.8510976312955099 -0.9570735995527135 3.5893611740780123 32 51 49
0.2655174995697913 -0.1769157183647695 1.2934136324084338 125 119 123
0.2655174995697913 -0.1769157183647695 1.2934136324084338 125 119 123
0.1928383572634819 -0.1842733124470802 1.3975227444601330 93 66 57
0.2804223067447139 -0.0013791167131011 1.2451232569992825 138 106 91
0.3420027385752996 -0.0109771457408336 1.1594768620506615 124 105 90
0.2834639899265866 -0.3499569674304458 1.2658831356392060 182 161 142
0.1615151319365300 0.0016749255664775 1.2482837599087282 164 148 73
0.2664761306960212 -0.1715777400225399 1.2822630209921286 153 116 97
-0.1697884540550863 0.0163121470325000 1.1307173935413437 126 143 133
0.3367506952635477 -0.0083035789100740 1.1643441672035633 201 176 154
-0.1642320620573053 -0.0116598282428551 1.1242460718781047 245 255 255
0.3188732489191756 -0.1675458196004386 1.2118129272126892 119 86 71
-0.1599499282651279 -0.0109377537319428 1.1221771070530433 255 255 255
0.1269653315557216 0.0317440521346211 1.2142849804452887 159 72 42
-0.1653208440842404 -0.0189901134362637 1.1216367071027820 240 255 245
0.0843800619504403 -0.4149421435141375 1.5557663136326481 202 181 164
-0.1778599728238656 -0.0093573512416858 1.1357221860083855 158 173 168
-0.0900928506992345 0.0210473667505356 1.1196396406631639 210 224 145
0.3079881111405990 0.0027380741125145 1.2107264472052852 203 183 174
0.3465305287601235 -0.3146485606509180 1.1780175402387236 176 153 145
0.3074607160916505 -0.3213890948982370 1.2301122301114047 115 83 60
0.1664315730657763 0.0103977216468140 1.2498691097272887 137 24 28
0.3605369471729534 -0.3046125459708036 1.1532129893173737 135 136 131
0.2327818333101556 -0.1344283369427882 1.3234077949533214 241 237 238
0.2095441506265813 -0.1643543353348907 1.3636058760934486 95 75 68
0.1968500529097312 -0.1344215133306650 1.3834583638960367 48 46 47
-0.1973182373596180 -0.1514142456787994 1.0574372632788203 117 65 54
0.2301057033819439 -0.1328552756874822 1.3266934429673192 150 126 114
0.2331802342893858 -0.1328969789557830 1.3424571004924475 150 126 114
-0.1355752472753563 -0.1497748483809643 1.1191711694569699 77 79 55
-0.0699754226609872 -0.1257455715450050 1.1596254874599221 185 187 103
0.3163622954056514 0.0396538253382339 1.1880493246334076 120 92 80
0.3147678381600416 0.0054478157071068 1.1902945186342193 208 192 179
0.3184221103545962 -0.1496211983225676 1.2161701427680165 89 61 39
0.1221901015901636 -0.3681143495607404 1.5018332885547929 181 162 148
0.1267058157327824 0.0492644441533663 1.2162599938340459 180 110 61
0.3589523843582230 -0.1135300074216124 1.1406877589599340 195 178 168
0.3476896668390200 -0.1131262829028068 1.1629407949750783 133 110 92
0.0723990018361892 -0.3768900439904772 1.5689378035720052 123 96 79
0.2820206578228678 -0.1120391223085992 1.2583819759713584 109 74 54
0.2175057077470876 -0.1537358492676786 1.3814933022397970 117 115 116
-0.1265502730028551 0.0336934303668753 1.1169755424640273 243 255 219
0.1671424084586486 -0.3432476083606580 1.4365048045800339 191 165 140
0.0278956917056644 0.0425487501477282 1.1686890296395780 206 212 138
0.3372072087635057 0.0071760414335397 1.1689949842887613 153 134 127
0.3566085206983277 -0.1091116005954432 1.1411882198889933 174 152 139
0.0360044261329395 0.0433264458713916 1.1724901103139922 196 202 128
0.3061370380710263 -0.1087817436833084 1.2196695948291767 142 114 93
0.3623055180031337 -0.1380166214714359 1.1384736339238164 189 173 160
0.2854100886968371 -0.1056863538190196 1.2493814119982243 113 81 70
-0.1363253562322615 -0.1394716724844907 1.1164852343936398 221 235 210
0.0673152714941138 0.0459702222145551 1.1862747031937371 197 201 127
-0.0916793417480223 -0.1407619331405864 1.1489676038478975 158 134 70
0.2813645485700501 -0.1004082383937699 1.2582676181519978 155 124 104
0.0758221761921145 0.0521171015626946 1.1894017113012039 68 76 37
0.2623490436429573 0.0310605621995676 1.2769364880068474 133 104 88
0.2621549067088193 0.0313300578226573 1.2761387363446093 133 104 88
0.3694947235681291 -0.0989281656145385 1.1262760892669319 150 131 116
0.3257681946886578 -0.1341953226740431 1.2012812619635576 175 152 134
0.1535549936707982 -0.3207504042228886 1.4516494496199530 166 143 127
-0.2452798748437579 0.0256788919810077 1.1871533039534303 210 156 6
0.1008085344238185 0.0570084222173582 1.2011772596355303 16 20 0
0.2655156368822985 -0.1329894816913259 1.2739949011889038 176 147 131
0.2339308858276257 -0.2942899618196834 1.3416662178862087 147 116 98
-0.1051709519893435 0.0170039759802861 1.1165613724841588 228 239 170
0.3684051389422762 -0.0905528818426087 1.1260997872223910 149 128 109
0.3138227087615374 -0.1279268092517443 1.2089954836179950 132 101 81
0.3684051389422762 -0.0905528818426087 1.1260997872223910 149 128 109
0.3636441337236932 -0.1260174068991115 1.1343764606453695 167 149 135
0.2856519267403181 0.0628029061683719 1.2334184984854404 139 106 91
0.3374867617760993 -0.1232040503278901 1.1745337057348459 184 178 166
0.3157071265464799 0.0573117029484471 1.1909703917890861 166 144 130
0.3238544476278357 -0.2597000097991058 1.2038782191310506 146 118 104
0.3720298705536944 -0.0880857499330575 1.1199864088199400 141 124 106
0.3720298705536944 -0.0880857499330575 1.1199864088199400 141 124 106
0.2478131832149937 -0.2718412145156740 1.3031954724452859 223 210 202
0.3659696183193718 -0.2441735440397122 1.1457311446304426 145 137 134
0.2913336007073853 -0.0817519222795675 1.2358419170859805 170 142 128
0.4353688105384711 -0.0884930710881875 0.9977537046136017 116 96 87
0.3026930384598545 -0.1153293923870103 1.2255867551671844 152 118 108
0.3134942260244521 -0.1154632634328044 1.2130302415809098 118 86 71
0.2290479331421990 -0.1146191817058629 1.3337172787979041 126 97 79
0.3460013192184439 -0.0816323125197854 1.1591238210685604 156 154 155
0.0960494631601339 -0.0767176168429576 1.2791011880048180 132 91 35
0.2771695533554703 0.0496527062080639 1.2463354179974258 161 129 114
0.3506089680497825 -0.0784517303758932 1.1524944099328109 141 119 106
-0.0540813837915618 0.0349571281499182 1.1414537844294526 148 131 61
0.2009632050639543 -0.2738854627821066 1.3787525465557791 116 107 108
0.1539518747529131 -0.0733669093545372 1.2866742849439934 193 45 35
0.3299914728550483 -0.0772401834362050 1.1686931078230567 172 146 131
0.0575227894733915 0.0445503197839989 1.1825534050313802 188 194 120
-0.0716024099081226 0.0401375169208925 1.1252335503255224 31 28 0
-0.1909054475253156 0.0948151827043273 1.1647317603302252 174 181 173
0.3444619057323345 -0.0721698044766542 1.1591520083958720 163 155 152
-0.2360404876436359 0.0498343201413588 1.1757305612550233 201 177 131
-0.1320755218627739 0.0915996924896945 1.1259123803990165 241 255 255
0.2872503007154458 -0.0632957356522469 1.2430906519633229 154 123 105
-0.1775424559917841 0.0996740090141614 1.1576864348894140 242 255 246
0.2552618442373605 -0.0605081583782356 1.2835121749011482 130 98 83
0.2552942579544254 -0.0602162358834014 1.2846961082906763 130 98 83
0.2982480815075737 0.0576746336272493 1.2100536935759221 198 183 176
0.3355483280054170 -0.0603169421008579 1.1758746706752208 84 58 45
-0.1777811408181500 -0.0617681234283862 1.1306106312163751 255 255 255
0.3375052529129267 0.0517766401875350 1.1586374105404584 180 162 148
0.3433183808670831 -0.0575497084554401 1.1583606030744766 205 191 180
0.1035638674639189 -0.0485160961508511 1.2710612769393248 140 103 48
0.1434090604265517 -0.2748557130696735 1.4635480862287515 238 236 237
0.0728523397757975 0.0646053192068026 1.1895920902036978 199 198 115
-0.1678521861280948 -0.0572532517649542 1.1216297719159198 255 254 255
-0.2887927866473304 0.0830026929511865 1.2730103766099525 241 110 126
-0.0980490188390093 -0.0536927103441500 1.1226402152934600 188 189 113
0.0577519432964372 -0.0458518530403320 1.2062307181392280 228 241 185
0.0364169702476201 0.0647527216643486 1.1711584554225876 140 138 97
0.3470923397471652 0.1102514240041607 1.1400377747859787 192 181 175
0.2725932386037059 -0.0403409609029752 1.2511321838900431 130 95 75
-0.1361196574293898 0.1130215171327762 1.1366920536464249 84 75 76
-0.1773830829061395 -0.0481445401761556 1.1308809695805784 254 255 255
-0.0919617427593904 -0.0459869327476241 1.1250155919485418 183 179 116
-0.0887318306709654 -0.0464948311336484 1.1281789067600569 173 158 89
-0.1324658059176271 0.1202205200406663 1.1397546030676278 179 196 206
-0.1941051335893968 -0.2129540701637875 1.0181865985514997 91 107 122
0.1332399717796735 0.1547256767940075 1.2521415051083997 43 36 28
0.1877620905315216 -0.2479987209055145 1.3716204966483889 255 254 253
0.1333041151504098 0.1547206773681398 1.2524285869690965 34 26 23
-0.2232194690646647 0.0867126513699899 1.1672038799587672 229 253 255
0.1332083001685094 0.1549963077749638 1.2525691276362534 43 36 28
-0.2231811282059488 0.0868317276009664 1.1673690693030052 229 253 255
0.3138044083185982 0.0902378706906797 1.1914964968655952 154 144 134
-0.1651825964872859 0.0979962159858706 1.1496059915923154 249 254 248
0.2386936831268667 -0.2345568251844665 1.3277107853979921 140 112 100
0.3540714722641213 -0.2108866731762057 1.1577914051131759 235 233 236
0.3100003115938071 0.1103194250252761 1.1960642286644252 178 150 138
0.4202027496880664 0.1077958942667069 1.0329102193442805 131 113 103
0.3014666320762142 -0.2130220106788461 1.2237077737997146 179 150 134
-0.1701205320048573 0.1091567278070196 1.1530101611965784 255 255 253
0.1610985907024852 0.1326860827703284 1.2698929787493345 62 35 16
0.1461554020927409 0.1350229983963053 1.2536180008913171 98 65 34
-0.1894953078424447 0.1153987506225727 1.1624985056748476 134 123 137
0.2219245125297286 -0.2094627191826977 1.3472971003705574 178 148 137
-0.1709491243533860 0.1137075859474440 1.1521978887056750 215 244 250
0.1049252438957742 0.1315460224537252 1.2219228191260927 127 158 189
0.2178495952542330 -0.2049744441685137 1.3568144341231541 118 114 113
0.1052767471935992 0.1328394406688392 1.2242922777451002 47 77 115
0.2119138258609831 -0.2034973996825475 1.3601609903495131 116 86 78
0.2211779388708892 -0.1987471280284187 1.3465917327775179 96 68 54
-0.3257252326672809 0.1645769163482040 1.1890293123016360 252 253 255
0.1503036460299726 0.1473230257413041 1.2653333633706549 32 21 15
0.3064526333033768 0.1287452031397107 1.1969676760295349 183 159 149
0.3065976793395788 0.1288496693323608 1.1976584659717235 183 159 149
0.4355128805658468 0.0827705852239694 1.0144710313482801 140 118 105
0.3193325587488266 0.1591936808436540 1.1754628532159614 162 139 125
-0.0967673124311920 0.1122062626913989 1.1188446488867940 235 246 177
-0.1358006988968672 0.1256990941027307 1.1456580411106205 105 90 95
-0.0742827068260401 -0.1733353479898623 1.1693028196530719 142 121 58
-0.1472763556207478 0.1268987344794757 1.1412076490367535 198 210 172
0.1021094558503917 0.1495136037480563 1.2266661171871407 53 86 129
0.3289706921607268 -0.1704437626113070 1.1913475964458915 158 135 121
-0.3151121268608361 0.1462565670671670 1.1949199277391784 221 109 134
-0.0520256712931536 0.1299254318393222 1.1349228801731817 219 220 162
-0.1861773969178389 0.1517342973809476 1.1694815033339707 48 29 0
-0.1871147756157593 0.1535277336387457 1.1758004999535392 75 86 56
-0.0691851554778611 0.1457722657669268 1.1294084636777744 86 92 46
-0.2085001195811968 0.1808129755852120 1.1744514790431735 88 69 62
0.3797530497558366 0.1336800975348281 1.0949774584264769 198 185 176
0.2463621953657326 0.1955221253565718 1.2833753053746608 186 160 145
0.2463621953657326 0.1955221253565718 1.2833753053746608 186 160 145
-0.1732267050152562 0.1922471934444192 1.1645474478235924 243 254 240
0.3025668719303292 0.1794948750021956 1.1994890503484545 159 141 127
-0.0780417125572629 0.1846982645789460 1.1392899230972575 78 81 50
0.0245648033471168 0.2062616922390004 1.2055188208563863 155 175 186
-0.1817807785044811 0.1957039134465412 1.1688006526867118 252 254 251
-0.2158665319511211 0.2013771850179961 1.1784434063040325 66 47 32
-0.1490124400293039 0.2064545015259491 1.1281061969841673 106 85 92
-0.1226157401537629 0.2129792141920598 1.1375181466603481 102 110 99
0.1108609693548050 0.2637336096561944 1.2788614539635690 164 178 187
0.0632627435951957 0.2574066965503983 1.2511262894189425 178 215 234
0.4265761486566501 0.1789639064947062 1.0413988092492972 190 178 166
0.2681986613314044 0.2573088771406128 1.2469878453370005 126 97 79
0.2715223567130382 0.2592075971296329 1.2390433098031266 183 162 143
0.2981914914648104 0.2433661494912599 1.1964973601180198 210 193 183
-0.1927741121027613 0.2469977720687402 1.1793829327659329 58 45 29
0.3193883790310159 0.2412545658498922 1.1695415767445589 152 130 116
0.2362078163048366 0.3004199229211605 1.2908079830983537 196 170 155
0.1954187219091702 0.3408004974960820 1.3534497698101233 162 158 155
0.4224722952725745 0.2233017222438208 1.0455520995027763 153 137 122
0.0188494846686400 0.4707510715535246 1.5974211521649366 201 191 182
0.0524010484349590 0.5174440688219600 1.5490125794386327 147 121 108
-0.0159543165408924 0.5720364787687224 1.6500993184905293 198 194 183
0.4248613072203176 0.2751053770892614 1.0232510129516554 140 127 119
0.0031517792416453 0.6113339321042051 1.6266764353043761 148 129 115
0.0109811459039615 0.6317630958139697 1.6069430044384176 185 169 154
-0.1994165332555475 0.1897945807273284 1.1825120962269704 104 93 48
-0.2618463277421145 -0.0815241884884379 1.1503101461017831 158 38 39
-0.1661145048872189 0.1849428588984768 1.1630059094724448 243 255 243
0.1905451535224557 -0.5237919346110108 1.4666811989333421 205 191 180
-0.0404442308171748 -0.0831862533455622 1.1680561298749330 186 181 125
-1.7880162832609225 -1.1786441262499376 3.6002804368588643 142 149 133
0.3201113300083412 -0.1969583910483846 1.2105811072605257 114 82 71
0.3012561053933777 -0.0775562144661255 1.2271194178111491 161 126 107
0.3009938221136824 -0.0775602280979115 1.2270753922580384 161 126 107
0.0250745106926411 -0.5740261586929403 1.6785567506962731 215 199 184
0.0434328204326791 -0.5185687999756373 1.6345649909519713 206 196 187
-0.2727746857742230 -0.0247261248582176 1.1738578308364394 156 26 28
-0.2632766688610488 -0.0196957654556581 1.1849465776396868 178 4 14
-0.0821797876108047 -0.0710498498767363 1.1392563864305332 127 118 75
-0.1598884759204323 0.1969787707820929 1.1536023376862106 243 255 243
0.2159307004355207 -0.4543292700817698 1.3714315883778492 184 164 137
-0.2624898250725897 -0.0061328067928315 1.2157459676619446 167 74 0
0.0869145342692921 -0.0022785603495867 1.1986852795703291 206 205 123
0.3043565177801998 -0.1582660752568312 1.2257086655964475 109 80 64
-0.0405404208790812 -0.1590087866462720 1.1891712935531542 73 53 29
0.3127424008390978 -0.0018559682821195 1.1972000884622644 149 123 108
0.3127424008390978 -0.0018559682821195 1.1972000884622644 149 123 108
-0.0797213405522596 -0.1524696086374786 1.1594267803669251 32 20 4
0.1173351073955281 -0.4783148703768094 1.5255413689707684 191 184 176
-0.0012110548111238 -0.0015133758595430 1.1752087825759912 21 21 0
0.1152801181516093 -0.4620525344729743 1.5225725159455132 194 187 179
0.3031740036805428 -0.1403618024206854 1.2250250301267191 118 93 71
0.3031099435389760 -0.1403577283239426 1.2250102137928800 118 93 71
0.3372728742292969 -0.3632964141959029 1.2009719290591199 188 166 153
0.3227844485702922 -0.0454450988875816 1.1894464996224106 116 93 75
-0.0743099390798113 -0.1395325232802365 1.1595607020317769 183 170 91
0.0685861594249256 0.3054935391177014 1.2935926523445791 1 8 24
-0.0578206477425819 0.0057981451163869 1.1435957679868016 11 2 0
0.1060348697556062 0.3249317656643306 1.3278531417153849 170 189 204
0.3112999811079609 0.0232420967375427 1.2103306207563174 202 195 189
0.3369137911230823 -0.3388945555947708 1.1929550318969957 93 65 53
0.1891864202374397 -0.3832881523727041 1.4078236799832886 234 223 217
0.0901772746205253 0.0286097838782110 1.1961745224490714 58 59 27
0.3131677559704734 -0.3393251402257175 1.2252003014182913 205 193 181
0.2743880303325825 -0.0272361727180211 1.2404756269552324 143 123 114
0.3396923518481563 -0.1162327420195010 1.1684837260778855 132 108 98
0.2743880303325825 -0.0272361727180211 1.2404756269552324 143 123 114
-0.1517008776516178 0.0225207463850895 1.1240588182470139 249 255 249
0.1235628302538061 0.0368999838981678 1.2096591313289109 197 192 111
0.3490416762061790 -0.3304642504547962 1.1811940006395585 127 104 88
0.2310617207497005 -0.3507582207466592 1.3423222246045601 153 126 107
0.1522084211860593 -0.3902953408857394 1.4640877387588005 215 207 205
-0.0818984252400115 -0.1112788609204924 1.1495512081046440 20 14 0
0.0648771293730732 -0.0080050294678594 1.1925553947811189 221 233 171
-0.1239783622535243 0.0260135824882057 1.1172979299222998 241 250 195
0.0886078674608474 0.0431177603494026 1.1957273949531582 181 191 131
-0.1791649487885681 0.0351358105944706 1.1397192821333071 253 255 254
0.3360793808470648 -0.3155341185044346 1.2007197621484618 114 105 100
-0.1498166089763393 -0.1031992402877808 1.1147751402780721 250 254 253
0.2682429969655264 -0.3284889870564013 1.2835872250873006 148 119 101
0.1333719087607212 0.5597160007024964 1.4316723349140463 182 164 150
0.3202479648347825 0.0441112592152000 1.1858495196586958 118 103 96
0.1332007303918291 0.5601551846709325 1.4333908484746658 182 164 150
-0.1544730597958180 -0.0041142852636092 1.1205853817612978 223 228 221
-0.0473245877579843 -0.0928607891494352 1.1657091674410907 200 201 131
0.0782538093409003 -0.3404006395378058 1.5524010071785361 139 134 131
-0.0717019116644131 -0.0002413488608975 1.1335487282456225 133 116 47
0.3015862262281759 0.0631044438794865 1.2081874735215918 166 144 133
0.0703853323945599 -0.3415640548153291 1.5743880013218805 183 157 144
-0.1011323305573135 -0.0020545629333629 1.1173951748910453 4 7 0
-0.1587241714408785 0.0535901758499606 1.1320585606413134 249 254 250
0.1374561784313018 -0.3204933965670517 1.4804030177483938 193 188 185
-0.1607723975826969 0.0596319029498163 1.1333138915657177 241 250 247
0.0721579136938224 0.0699467077595857 1.1894140987424637 37 39 0
0.1071716778944884 -0.3192661255137384 1.5250196626241552 219 214 211
0.0720214578363050 0.0699195075252081 1.1899574552458938 37 39 0
0.2803112687908503 -0.2728644869860580 1.2647227027840229 163 137 124
0.3025108500066973 0.0737844218531203 1.2141317973479073 156 133 117
0.2223610994747125 -0.2877870697749725 1.3605730988671929 155 126 110
0.0455473875464971 0.0712456975518844 1.1765730891915154 157 157 105
-0.2408368351043653 0.0243310960305501 1.1932233960629750 157 24 29
0.3116129268188104 -0.2773774421712576 1.2219548883031974 142 116 99
0.1287133653758349 0.0279046972827219 1.2171270294910641 111 25 12
0.0782436704562432 -0.0743752861799995 1.2683133009928720 38 24 15
0.3514572074870521 0.0749015933434333 1.1404530831039559 160 155 151
0.1284049761580382 0.0276046906243586 1.2177411472451820 159 81 45
-0.1833834060496166 0.0887759703810463 1.1560570259621088 243 253 242
0.2940543312574971 -0.2738376876310280 1.2571760776284604 140 111 93
0.1460371849248986 -0.0662215923918134 1.2821683437264539 206 35 51
0.3086526240759886 -0.0666937988597289 1.2183318370711673 162 131 111
0.2959896015496489 0.1083547096993063 1.2166089689847261 172 158 145
0.2191464183449137 -0.2346456253205516 1.3401783490618231 83 79 78
0.2193268691259147 -0.2212537825438647 1.3576419579126524 79 75 74
-0.2984857815902365 -0.0674566096690035 1.1776101383861048 247 239 32
-0.1584830994719747 0.0987563707004057 1.1485232103670475 243 252 249
-0.1249185893797009 0.0481687152694511 1.1189936850972448 51 74 46
-0.1254997400327596 0.0480011709182597 1.1188210217159025 59 71 35
0.4283730059598007 0.0396465929424121 1.0321328466063127 197 199 194
0.3238505559827529 -0.0604755071237217 1.1891885463977214 163 137 122
-0.1795280927671266 0.0734291949791201 1.1494448885250867 246 255 250
0.2789445443685026 -0.3056536321982550 1.2863047939089460 130 110 99
-0.1911734942253642 0.0835991359785253 1.1615792820267219 117 96 103
-0.0506568982344260 -0.0408940916143341 1.1569964655772358 152 133 64
-0.0457335010392640 -0.1541806145257409 1.1833766716956111 158 134 64
-0.0395672853276890 -0.1467502307866444 1.1845891983800547 13 4 0
-0.1785811269733016 0.1066502390312340 1.1555176039430568 238 249 232
-0.1636222532022553 0.1054292239732721 1.1495188006822574 255 255 255
-0.1578469245127213 0.1096343416163463 1.1456070905323226 150 175 169
0.4176215837892152 0.1353378068308058 1.0385006859791563 138 116 103
0.2459422030158718 -0.1744121378130888 1.2901476500353068 126 121 118
0.2462739066236266 -0.1745502497570018 1.2928038207550945 126 121 118
0.2243451780941052 -0.1650148318911852 1.3334247566408406 122 91 70
0.3182473191891872 -0.1370958736586093 1.1962598850525230 253 243 241
-0.1877399755100876 0.1389529390808762 1.1728021232744015 28 17 13
0.2925232017542573 -0.1010834450472567 1.2562000908268209 161 130 112
-0.0482363374147384 -0.1015752993496267 1.1677760777851736 179 177 94
-0.1555670746647718 0.2742825971343881 1.1893480323541223 115 123 74
0.0331271945260290 0.1773975159517971 1.1925963805437676 184 193 198
0.3003309111448992 -0.0890694045367087 1.2274099386716599 126 91 72
0.4244646916049682 0.2330241944962584 1.0390201732584099 194 189 185
0.4254471627101646 -0.0841415307770284 1.0392576122068133 140 106 94
-0.2958099537175542 0.2687657917551216 1.0791325098805107 148 4 13
-0.1823247212472404 0.1845460404268766 1.1801634293797503 245 253 242
-0.0527703528086622 0.0900747198352107 1.1315606855415601 52 35 41
0.0823906999622932 0.1054236969825639 1.1995213339473476 163 170 180
-0.1033969913772513 0.0899317420437542 1.1213078491550241 231 239 179
-0.1491673926082971 0.1034178117005452 1.1408747369505585 247 254 246
-0.0481488161536107 0.1111684802420615 1.1329745860198490 218 226 153
0.1423799850634247 0.2132249007203140 1.2719230601701648 135 130 127
0.4458714640275783 0.1490951613182664 1.0160450889221257 199 191 188
0.0042141268892597 0.2662979001480416 1.2335323359317998 60 63 70
-0.2591836968320255 0.2398207666527528 1.1151415749778031 215 216 159
0.4377296532855413 0.2499109225553951 1.0167871445611600 170 169 164
0.1249324467738899 0.5350745562438672 1.4530239046569742 160 132 118
-0.0693557447887271 0.1362454849026758 1.1307888400908186 179 178 95
0.0311000057632427 -0.0586393413584517 1.2058400191993324 172 173 133
0.0809064590904379 -0.5154194772532706 1.5951861696249023 151 123 101
-0.1844926390649754 0.1665228884949433 1.1809428023882833 81 76 36
0.0308441025669316 -0.0587738451460924 1.2056486797323234 143 127 76
0.0799593817084187 -0.0660428292836026 1.2215881753770996 144 109 41
0.0810175503836073 -0.5190166574463775 1.6073453513995268 151 123 101
0.0359498081339931 0.5280216209529329 1.5741787290261200 175 163 151
-1.8646263883674317 -0.9770312979530990 3.6045833972048462 46 57 49
0.3444078069196461 -0.3327067666581807 1.1902885762813251 171 154 147
0.3444078069196461 -0.3327067666581807 1.1902885762813251 171 154 147
-0.0748766838978264 -0.6447651354193721 1.7922451597284661 150 123 102
-0.1483285570774822 0.0270177923775809 1.1268664837958255 249 254 248
-0.1228968454786333 0.2324328418575596 1.1481048491129362 216 212 151
-0.2708144432838560 -0.0336794794529918 1.1763883572468261 200 44 48
-0.1887858698843739 0.2558699154225858 1.1871798648859395 26 16 17
0.4093841432213792 0.0098195209166085 1.0587705913004568 138 107 89
-0.3339442967791816 0.2609852739480092 1.1022723911970689 86 82 97
-0.2412540341751128 0.0909772213141087 1.1787219794969908 176 168 165
-0.2713133946706155 -0.0114273905705442 1.1755444931860826 244 240 8
-0.2914731612085502 0.3554508218397666 1.1437635004050803 169 155 144
0.3068669127747036 -0.2786048438002424 1.2528174516472321 161 150 144
0.1135522466496758 0.2212760288390137 1.2592272435780669 27 27 29
-0.0450610218573803 0.2628001800418834 1.2087643990321082 136 139 144
-0.2075585739022669 -0.1627011939304843 1.0326715176817758 160 89 69
-0.2077600468113543 -0.1637748780689550 1.0364488673148831 161 90 68
-0.2399624706428955 0.2485365632362227 1.1073529865515750 26 14 16
0.3174435386141690 -0.1156114243891357 1.1991011855449210 170 152 138
0.2579163243857954 -0.0936561239488311 1.2771404227080589 149 117 102
0.1192172464001945 -0.5342520784543231 1.5427684204551311 196 180 167
-0.0899402548046256 -0.1473858897389934 1.1476589299976814 156 137 79
0.1192343934812148 -0.5349302007560760 1.5440311120771175 196 180 167
-0.0891161882819339 -0.1120617657634515 1.1431640915978987 156 134 76
0.1035985869520938 0.1041037616709431 1.2193424931932610 105 76 36
0.4235864608455317 0.0664782710501943 1.0329820751891654 109 90 84
-0.0769748812569284 0.2231006613614447 1.1657408303887384 74 63 31
-0.0224411429211143 0.2713049207032149 1.2235380196173948 207 230 248
-0.1782227663470144 0.2056681899982244 1.1603491432122433 245 255 250
-0.0315914297806092 0.0574180205992157 1.1517270015526975 208 207 117
0.0469427275271435 0.2296651874870180 1.2274922008216107 183 202 217
0.0504408829068497 0.1221950474332914 1.1846501820291344 158 174 187
-0.1785969588038436 -0.1409241961649722 1.1471956020201972 38 25 17
0.2839250711263007 0.2090055678541119 1.2195271666470393 224 228 237
-0.1995730366724353 0.0250112017482060 1.1901021086670034 238 255 255
-0.0591598647682139 -0.1478060068347999 1.1714477413688864 165 155 86
-0.0881167952584251 -0.1117299810373519 1.1439782170790822 156 132 68
-0.2162062072360657 0.1923180020505556 1.1783624259601515 87 60 53
0.2448560151844553 -0.1215292797919764 1.3125862604449821 199 192 186
-0.1468673301597566 0.1926482953422366 1.1256774571979187 141 129 143
0.3274535157573594 0.0495620462218902 1.1753123716743625 127 98 82
-0.0546110694790046 -0.1152989702030785 1.1646655235565786 173 176 123
0.4301717320348956 0.3661067354796655 1.0051576088293019 119 112 104
0.4318129014677550 0.3679858994298267 1.0111254062524644 192 183 174
0.1511131115038373 0.0352036495409125 1.2319164215691343 178 117 62
0.1511131115038373 0.0352036495409125 1.2319164215691343 178 117 62
0.1442679601796948 0.0371577225392282 1.2248380951086260 164 124 62
0.3189304183864297 -0.3603231910823766 1.2139944645316751 125 106 91
0.2574422462607958 -0.1311346662105194 1.2822451806451105 207 179 157
0.2681411306858564 0.2135245026421752 1.2365774143229251 95 63 50
-0.0545809606738530 -0.1129537267236141 1.1644335704919078 41 32 3
0.2558325467952557 -0.1319873171899493 1.2922713812274429 255 255 255
0.3884402388498030 0.2114926695275697 1.0834188835153318 112 93 86
0.3145396718019617 -0.0872613328114441 1.2085558379092289 149 123 108
-0.0391813799490198 -0.1137361470764528 1.1740094385597080 37 25 9
0.2570787376622128 -0.1278057177234606 1.2792040370488578 209 188 171
0.3430810381128802 0.2136842360463636 1.1411897264282018 152 138 129
0.3260116080174635 0.4099255122007824 1.1535868634485178 128 114 105
0.3260116080174635 0.4099255122007824 1.1535868634485178 128 114 105
0.3897409573693057 -0.0537430087634145 1.0969685003845264 145 127 115
0.2717530561626113 0.4297473727181805 1.2315349905050110 202 184 174
-0.0506299987030486 -0.1112901843951409 1.1665946530306581 9 15 0
0.1345043662557949 0.0412243214579872 1.2178013118359543 163 129 58
0.1452299230909534 0.0408386747829819 1.2296518376792971 100 31 0
0.3036733396180331 0.0503028527849519 1.2095300899289174 192 170 156
-0.1290702736953706 0.0438514139469019 1.1188712382970551 247 255 205
0.2691438513662670 -0.1038077765958065 1.2769788736334791 198 172 157
0.2317388385574254 -0.1585649098827755 1.3224817043667279 143 119 107
-0.0409802866640332 -0.1098214282190478 1.1716371524516045 197 198 122
-0.1814657758394975 -0.0871469928717115 1.1335642632670264 252 253 245
0.3192000855086013 0.2178927723249401 1.1667926861572635 179 153 128
0.3285629955212548 0.2157616006774843 1.1588223764884877 119 108 102
0.0961567323129865 0.0447630401704296 1.1986446032863818 206 205 149
0.0962918138329468 0.0449162636872513 1.1989192903184185 206 205 149
0.2246907844486460 -0.4323064007849960 1.3695642380064526 194 168 155
0.1335136097321171 0.0442171707052023 1.2177092480016973 196 125 83
0.2877787381924269 0.2239932615176881 1.2157760854193804 190 168 147
-0.1580744274768174 -0.0795118724620752 1.1131376936099044 33 65 60
0.1042181657222728 0.0457655971558069 1.2020970455876678 180 188 128
0.1011387012990087 -0.5207479040660181 1.5346218189373155 206 186 162
0.3446634142496011 -0.0632529803495266 1.1516839130077476 223 210 202
0.3144269932797143 0.0561657202642150 1.1919601025151207 129 111 107
0.0271181183786495 -0.0954745446052760 1.2151588990897728 206 209 142
0.3327110609131639 0.4296505572465442 1.1819756795296033 222 213 206
0.1700666438238290 0.0425485394095175 1.2557075451694055 150 29 12
0.0363574766076105 -0.0949668212113872 1.2181354436091818 220 239 184
0.0363574766076105 -0.0949668212113872 1.2181354436091818 220 239 184
0.1357220931109969 0.0464470429272707 1.2206429502307543 187 127 73
0.1356460410736912 0.0458822213165268 1.2231943241369732 162 96 62
0.3391185669826016 -0.0650450653731326 1.1646419716223677 78 52 35
0.0224293538661708 0.2123901616115664 1.2105247084010982 0 0 5
0.3426965304556532 0.0643628732703136 1.1510362277688668 132 114 102
-0.1279477636086080 0.0479137183627781 1.1189265829678006 70 75 52
0.3195449770195697 0.2196893016475224 1.1737613970651160 111 94 84
-0.0979662676650530 -0.0777159191568085 1.1283844594010313 25 6 0
0.1543726167960351 0.0455785398693667 1.2385291157692817 71 36 0
-0.0981596838803929 -0.0778315310873678 1.1281684939078553 25 6 0
0.2991489425722922 0.2252560813798791 1.1997819881403737 130 106 94
-0.2187959815465278 0.2080437436475420 1.1785011557367024 23 9 0
0.2573450717956057 0.4492284649096260 1.2490044523699011 167 147 136
0.3878262092271100 0.2220082046926334 1.0836154975285164 117 93 83
0.3027057480428458 0.0554308415886620 1.2103722267362471 174 151 135
0.1527966287465907 0.0465702406538455 1.2374195963002856 164 102 63
0.2686477105363278 0.4457996904700987 1.2312396651282058 155 133 120
-0.1877066910586532 0.2095879317975950 1.1672032783661599 249 253 254
0.2175105108402368 0.2329103505059611 1.3303983900389871 107 84 70
0.2976338704767696 0.4369420953754982 1.1923918373926765 130 116 107
0.1328945891244603 0.2211482580163114 1.2705908583963486 0 0 8
0.2801087828856832 -0.1046390232826246 1.2426224282054559 187 172 169
0.0844170028117563 0.0490885797410894 1.1934611354984799 57 49 13
0.2488883159740625 0.4546984774237537 1.2631300861603150 171 147 135
0.0842733811884342 0.0489936991919966 1.1934909442896604 51 47 22
0.3422178309494807 -0.0624237210807667 1.1612523729984150 120 95 75
0.2920333584524403 0.2234722566344132 1.2113965002569234 58 45 37
0.2461172169742478 0.2270743530875293 1.2861465157440175 196 174 163
0.2697998405912683 0.2291662039186923 1.2496590944819537 106 83 77
